ply
format ascii 1.0
element vertex 64
property float x
property float y
property float z
property uchar red
property uchar green
property uchar blue
property float opacity
property float scale
end_header
0.329792 0.188355 0.023747 143 126 209 0.245134 1.474820
-0.201542 -0.157069 -0.019737 118 99 178 0.228013 1.488000
0.507804 -0.274504 -0.506837 114 175 212 0.223436 1.222304
0.202773 -0.244564 -0.409379 246 71 45 0.762006 4.332000
-0.137054 -0.068167 -0.327092 48 117 231 0.760523 2.217387
0.213448 -0.009765 0.079857 146 148 170 0.178423 1.268681
0.027733 -0.251275 0.391957 61 139 202 0.655633 1.636023
0.042019 -0.418174 0.255249 80 132 133 0.219159 1.311145
0.072119 -0.166077 0.029054 96 159 134 0.201184 1.224959
0.355165 0.143342 -0.310282 103 90 168 0.344583 1.196638
-0.298320 0.011916 -0.023753 132 173 184 0.228435 1.040717
0.313909 0.294611 0.132724 164 174 184 0.118109 1.000000
0.082095 -0.122068 0.386531 47 113 211 0.819772 3.038383
0.081516 -0.497723 -0.349670 188 110 131 0.226488 1.133889
0.006631 -0.215711 -0.115217 53 95 206 0.348866 1.544095
0.427370 -0.568254 0.199766 50 175 235 0.328151 2.972426
0.053169 0.119161 -0.309278 44 100 190 0.392839 1.151105
0.292114 -0.103240 0.195270 79 128 185 0.341294 1.000000
0.364418 0.102329 -0.272296 57 133 229 0.724440 2.112283
0.135602 -0.009560 0.245385 65 136 228 0.831687 2.603812
0.055718 0.083173 0.030012 193 206 217 0.241130 1.423492
0.178787 0.035373 -0.017679 124 157 205 0.227197 1.302690
0.650935 -0.054392 0.020816 41 131 184 0.314097 1.538230
0.245871 -0.283330 0.351709 88 100 188 0.539209 1.992548
0.427934 0.183079 0.141830 43 121 232 0.776001 2.430188
0.055447 0.058989 -0.171030 119 194 217 0.360404 1.000000
0.101273 0.146377 -0.484052 65 140 180 0.234200 1.378689
0.106351 -0.385120 -0.377053 216 73 74 0.590991 1.946781
0.110897 -0.349825 0.160663 40 113 229 0.866919 3.444489
-0.062663 0.217989 0.028731 128 182 241 0.797922 2.251119
-0.112946 -0.249728 -0.086318 140 143 175 0.217502 1.195538
0.377886 -0.105599 0.056844 158 158 175 0.205947 1.097660
-0.194610 0.145806 0.165405 174 148 187 0.175710 1.290712
0.532202 0.052924 0.245675 66 155 219 0.739119 1.990762
0.469559 -0.058353 0.017795 24 123 244 0.897290 5.534307
-0.141164 0.078509 -0.047711 111 191 243 0.920718 2.950670
0.378180 0.054377 -0.208120 70 144 220 0.731600 1.742876
0.596430 0.146340 -0.658279 144 108 139 0.119748 1.000000
-0.429335 -0.359445 -0.271437 112 96 177 0.160921 1.000000
0.160710 -0.744076 -0.617306 204 33 80 0.163882 1.000000
0.281702 -0.321461 0.036765 112 84 175 0.218726 1.000000
0.125088 0.163954 -0.195732 60 118 189 0.395425 1.193801
-0.119538 -0.080459 0.366662 89 116 192 0.318543 1.364942
0.283755 -0.450803 -0.536289 244 97 33 0.446841 2.992005
0.341012 0.189425 -0.102446 133 170 195 0.155355 1.115065
-0.139482 0.010736 0.212986 54 128 219 0.808820 1.656866
-0.211372 -0.151908 0.201990 69 102 186 0.375417 1.680167
0.593263 -0.143230 -0.226631 67 138 205 0.197688 1.000000
-0.100169 0.109473 0.186111 153 176 208 0.276383 1.227860
0.215085 -0.074556 -0.071464 75 130 180 0.427528 1.152100
-0.073960 -0.340433 0.259308 59 122 203 0.700731 1.673981
0.302290 0.261240 0.097943 104 152 218 0.431379 1.312108
-0.926057 -0.253926 -0.565070 164 144 162 0.091284 1.063515
-0.165274 -0.748951 0.243815 175 225 235 0.305228 2.493821
0.070164 -0.347008 -0.031864 60 70 182 0.518556 1.190400
-0.030780 0.129728 -0.182723 102 164 242 0.818929 2.376501
0.060439 0.077814 0.026561 196 206 195 0.204169 1.202847
0.103674 -0.355144 -0.162866 51 78 180 0.421941 1.357884
0.194203 0.325808 0.017547 137 195 200 0.249031 1.404770
-0.006653 -0.528833 -0.136384 91 180 244 0.756571 4.484420
0.188295 -0.500009 -0.236673 177 148 173 0.280868 1.349550
0.450207 -0.087639 -0.413896 176 102 110 0.500999 1.741049
-0.275376 -0.019038 0.039744 76 147 186 0.261500 1.436947
0.118997 -0.095467 -0.305002 139 119 153 0.240668 1.000000
