ply
format ascii 1.0
element vertex 839
property float x
property float y
property float z
property uchar red
property uchar green
property uchar blue
property float opacity
property float scale
end_header
-0.179007 -0.937469 4.537345 231 102 41 0.000008 1.000000
2.068877 1.098811 -0.441898 96 140 214 0.000004 1.000000
2.208589 1.066712 1.600890 19 31 215 0.000005 1.000000
0.344096 1.458364 -0.215769 163 162 151 0.000005 1.000000
9.025083 -4.826247 2.047257 0 1 254 0.278264 1.000000
0.801885 -2.207544 0.197954 17 37 222 0.006491 1.000000
-0.056653 1.351997 0.114307 164 138 171 0.000006 1.000000
2.722249 -4.124144 -2.022356 0 215 254 0.000047 1.000000
0.906958 -3.144301 -1.882785 65 66 187 0.000073 1.000000
-1.442199 1.865194 0.349611 141 181 197 0.000005 1.000000
4.552447 -5.674078 2.859815 1 13 252 0.000106 1.000000
0.055534 1.624616 0.824132 34 156 241 0.000010 1.000000
0.445226 1.613875 0.760203 173 224 253 0.000005 1.000000
-2.506599 0.742663 -0.455896 109 125 206 0.000004 1.000000
9.852312 -6.060525 2.277288 248 254 254 0.204548 1.000000
-2.392990 1.181726 -1.239462 83 116 189 0.000004 1.000000
0.102866 1.070858 -3.097541 14 15 95 0.000004 1.000000
0.148111 -1.873283 0.378238 162 129 99 0.003043 1.000000
-2.122147 -5.105378 -4.083233 116 8 9 0.004171 1.000000
-0.682262 1.833480 -1.027552 183 134 185 0.009525 1.000000
-1.004233 1.682732 0.124059 165 138 137 0.000003 1.000000
0.003775 1.582283 1.733573 20 39 215 0.000004 1.000000
1.045412 -3.150290 -1.804002 226 219 203 0.000323 1.000000
0.118956 -1.957147 -0.487541 172 171 108 0.011150 1.000000
0.269664 -1.880868 0.331466 153 160 171 0.000504 1.000000
1.101807 1.339674 1.567085 20 73 226 0.000004 1.000000
0.875267 1.672368 0.211894 139 107 176 0.000151 1.000000
0.549764 1.748643 0.864081 139 172 199 0.013090 1.000000
0.553493 -1.990556 -0.056142 225 173 175 0.003343 1.000000
1.298650 1.249949 0.942095 221 219 222 0.000004 1.000000
-0.852539 1.413014 1.715559 76 173 235 0.000004 1.000000
0.640649 -2.084702 -0.191203 66 178 145 0.005765 1.000000
-0.575387 1.100764 -0.012363 106 218 218 0.000001 1.000000
0.378278 1.453475 -0.114157 202 204 232 0.000005 1.000000
0.132499 0.996778 1.517048 16 138 251 0.000005 1.000000
-1.541674 1.433334 0.369576 173 145 176 0.000003 1.000000
5.189856 -1.298626 2.252054 26 88 231 0.000013 1.000000
-5.611919 -2.946611 4.729697 9 24 162 0.000222 1.000000
-3.759934 0.983489 0.762300 3 225 252 0.000006 1.000000
1.562012 -3.678342 2.280620 3 223 253 0.000093 1.000000
2.525768 -1.085352 3.819728 252 250 248 0.000010 1.000000
1.516407 -0.838418 -5.330214 25 57 175 0.000030 1.000000
0.801101 1.277204 -1.123458 43 127 201 0.000003 1.000000
1.096079 -2.651248 -0.889549 15 18 231 0.000955 1.000000
4.227630 -5.231796 -9.793981 254 254 254 0.418890 1.000000
0.971120 -3.128822 -1.781986 166 213 223 0.001777 1.000000
0.219950 1.569583 -0.714940 189 188 197 0.000003 1.000000
4.530939 -1.268724 -4.102556 3 89 249 0.000138 1.000000
1.486554 -3.535561 2.120499 0 26 254 0.000105 1.000000
-6.253486 0.105628 -0.525083 246 4 2 0.000093 1.000000
-0.205562 0.924039 1.861478 4 32 248 0.000004 1.000000
6.694350 0.055522 0.006126 31 15 30 0.000006 1.000000
-0.094559 -3.601949 -2.618950 63 12 22 0.001117 1.000000
-0.634738 1.704995 -0.824376 128 157 142 0.000006 1.000000
2.311932 -0.064098 -3.491273 251 1 0 0.000009 1.000000
0.959063 -2.395857 -0.485510 82 44 162 0.003802 1.000000
1.540300 1.321328 -0.208880 209 220 237 0.000003 1.000000
-4.547034 -1.035571 -1.196956 38 72 203 0.000013 1.000000
0.277720 -2.127924 0.689806 225 245 245 0.000834 1.000000
-5.010483 1.064826 -2.724506 8 33 222 0.000017 1.000000
0.204587 -2.174994 -0.763729 198 147 189 0.003308 1.000000
3.494140 -4.281298 0.832757 47 237 243 0.000040 1.000000
1.533345 1.525997 0.588203 83 172 222 0.000004 1.000000
-2.757716 -1.064931 -3.397368 9 157 246 0.000022 1.000000
-4.527934 -6.932619 -5.305693 1 22 252 0.005985 1.000000
-2.090713 0.138579 -3.335195 18 27 75 0.000009 1.000000
1.144668 -4.846045 -9.646445 254 254 254 0.299014 1.000000
0.187263 1.674290 0.900475 108 137 172 0.000076 1.000000
-5.959628 -2.413290 -3.747792 0 247 253 0.000044 1.000000
4.865723 -6.510119 4.277622 2 241 251 0.000247 1.000000
1.508731 -2.852989 -0.662841 17 55 217 0.007802 1.000000
6.034104 0.076555 0.035752 5 8 15 0.000005 1.000000
-0.272688 1.461108 0.153044 200 152 157 0.014611 1.000000
-0.204088 1.649042 -0.819628 125 88 169 0.000136 1.000000
1.097718 1.350162 2.736428 5 20 241 0.000006 1.000000
0.815243 1.671378 -0.314881 161 35 72 0.000751 1.000000
-4.176942 0.824046 -0.693912 27 208 238 0.000008 1.000000
-5.433205 1.243647 0.600644 3 246 251 0.000007 1.000000
0.644928 1.114673 2.373500 5 25 247 0.000005 1.000000
2.639443 -0.897736 -4.088174 2 159 251 0.000010 1.000000
0.347926 1.845277 1.236388 174 191 164 0.003701 1.000000
-1.974561 1.489750 2.131383 249 10 5 0.000005 1.000000
-0.370885 1.562949 0.707530 65 181 234 0.000002 1.000000
-5.024703 -5.353523 -13.017250 254 0 0 0.097807 1.000000
6.932748 0.046549 -0.004871 54 18 17 0.000010 1.000000
-0.663455 1.577509 0.333765 204 195 206 0.000003 1.000000
-2.369596 1.252829 -0.393632 23 90 212 0.000004 1.000000
-2.238040 0.989312 -1.011177 39 45 148 0.000004 1.000000
-2.707659 1.026645 -0.014688 4 86 248 0.000005 1.000000
-0.202942 1.079791 -0.145901 188 227 247 0.000001 1.000000
0.091066 1.271093 2.407308 27 18 34 0.000005 1.000000
-3.821763 0.224386 -0.156050 35 58 192 0.000038 1.000000
-1.083519 1.282683 1.165089 115 139 191 0.000003 1.000000
-0.994094 1.933373 1.318904 193 136 174 0.000012 1.000000
1.582090 1.942414 0.658842 150 181 187 0.000006 1.000000
2.170602 1.249009 2.757172 5 13 247 0.000006 1.000000
-2.865494 -1.249804 -3.604267 5 1 2 0.000012 1.000000
-1.274224 1.092788 3.128864 174 9 10 0.000005 1.000000
-1.737964 0.863707 1.923064 18 21 127 0.000005 1.000000
0.073752 1.306623 2.056200 12 62 245 0.000004 1.000000
0.345332 1.484172 0.178284 151 71 169 0.006151 1.000000
3.083061 -3.919273 0.436156 164 67 88 0.000043 1.000000
0.981155 1.341430 -1.013201 63 151 199 0.000003 1.000000
10.545286 -5.974475 1.633216 0 236 254 0.142550 1.000000
-1.296403 -0.068692 -3.721338 21 209 234 0.000016 1.000000
3.008020 0.394348 1.885519 245 237 221 0.000004 1.000000
-1.071456 -2.474813 -0.408884 213 177 196 0.015569 1.000000
4.619814 0.312839 1.379595 213 224 218 0.000008 1.000000
4.193479 -4.835616 -1.053776 8 185 247 0.000034 1.000000
1.257723 -2.637919 -0.560867 76 95 218 0.007131 1.000000
0.072807 1.657905 -0.826642 150 173 205 0.001990 1.000000
1.341180 1.609836 -1.445234 77 91 186 0.000004 1.000000
-1.547117 -1.062278 -4.001475 18 222 244 0.000023 1.000000
-0.146216 1.272073 -0.624414 236 238 227 0.000002 1.000000
0.608331 1.522642 0.235422 150 88 92 0.000004 1.000000
-7.252336 1.174996 -1.231568 0 0 3 0.000013 1.000000
-0.705784 1.603033 -0.071874 142 202 189 0.000342 1.000000
0.503069 1.537760 2.474664 54 90 194 0.000004 1.000000
-1.309744 1.101105 -0.407239 200 217 213 0.000003 1.000000
0.924747 -2.608963 1.013412 122 237 227 0.000267 1.000000
1.868675 1.460514 1.633289 42 38 167 0.000004 1.000000
0.600563 1.633241 0.439741 56 155 216 0.015643 1.000000
2.391886 1.389005 -1.849030 13 38 210 0.000005 1.000000
0.199236 1.395043 0.106128 146 175 200 0.000031 1.000000
-0.242557 1.397443 -0.140791 35 158 244 0.000003 1.000000
1.500079 -3.295799 -1.708521 3 230 250 0.000106 1.000000
-1.426077 -1.268274 -3.573172 89 142 163 0.000006 1.000000
-0.198454 1.475059 0.274778 192 159 216 0.048403 1.000000
-3.028168 -3.913362 -0.185524 10 13 146 0.001356 1.000000
-2.755085 -1.063528 -3.370411 17 196 226 0.000016 1.000000
-1.818100 -4.510555 -7.729956 254 254 254 0.079561 1.000000
3.091436 -4.428649 -2.129075 232 0 0 0.000084 1.000000
-0.604322 1.715793 0.898190 61 125 213 0.000007 1.000000
-3.180051 0.196856 -1.321914 93 60 176 0.000007 1.000000
2.449405 1.434556 2.117943 10 30 234 0.000005 1.000000
-0.132153 -2.183472 -0.798883 84 164 218 0.000946 1.000000
2.687058 -3.666169 -0.273860 8 22 247 0.004416 1.000000
8.245658 -2.541975 0.712515 0 253 254 0.000018 1.000000
0.346793 1.555998 -0.466853 130 182 142 0.000493 1.000000
-0.058520 1.424441 -0.214349 147 162 189 0.014493 1.000000
1.861639 1.029521 -3.223143 12 45 194 0.000006 1.000000
-1.828925 -3.126204 -8.044485 252 3 1 0.006659 1.000000
1.644734 -3.809475 2.395653 7 243 252 0.000365 1.000000
-3.452665 0.024043 -5.511069 12 11 28 0.000171 1.000000
1.094510 -2.486125 0.444902 64 158 231 0.005149 1.000000
-2.224250 1.117077 -0.839322 54 186 220 0.000004 1.000000
-4.781867 2.051063 13.159454 0 0 254 0.000128 1.000000
-2.267798 -3.326662 0.023961 51 234 248 0.000509 1.000000
-1.652920 -2.896821 0.412936 126 178 190 0.002291 1.000000
-1.920768 -1.218248 -4.556709 8 82 236 0.000019 1.000000
-3.179759 0.282478 -2.564271 189 217 231 0.000013 1.000000
-0.979386 -0.096137 -1.827262 203 228 251 0.000005 1.000000
-0.911836 1.665612 1.777455 173 32 32 0.000004 1.000000
-0.151573 -3.278458 -2.215514 95 4 6 0.000699 1.000000
4.599614 -5.176530 0.793632 4 237 249 0.002921 1.000000
0.128566 0.823101 2.017693 43 196 251 0.000006 1.000000
-0.531924 1.568811 1.543564 144 153 164 0.000003 1.000000
3.861379 -0.950001 3.307468 2 6 247 0.000009 1.000000
2.338135 1.003188 -2.912549 1 241 253 0.000006 1.000000
10.226236 -6.111703 -4.137786 0 251 254 0.041727 1.000000
1.901319 0.923597 -0.489643 201 185 216 0.000003 1.000000
1.596856 -2.871566 0.509350 44 30 140 0.002478 1.000000
-1.346617 1.097898 -1.118059 14 19 183 0.000004 1.000000
-0.078556 -0.904831 -4.064190 55 167 209 0.000008 1.000000
-3.855689 0.188080 -1.582348 177 119 110 0.000008 1.000000
-1.609102 0.761565 2.038878 116 154 223 0.000005 1.000000
3.567248 -4.787323 2.201291 2 31 250 0.000157 1.000000
-0.314909 1.434167 7.119984 239 9 5 0.000009 1.000000
2.699048 -3.780481 -1.140334 250 6 3 0.000110 1.000000
-1.318498 -3.753454 2.562064 90 162 195 0.000084 1.000000
-1.796891 0.843510 0.974633 22 243 253 0.000005 1.000000
-0.687743 -2.730550 -1.357542 14 28 196 0.000483 1.000000
1.556502 1.228194 1.407964 40 70 191 0.000004 1.000000
2.836697 -0.963041 -4.402432 3 136 251 0.000014 1.000000
-2.679226 -3.639459 -0.065295 33 237 252 0.000662 1.000000
-0.055861 0.987536 1.807172 117 141 120 0.000003 1.000000
-1.751701 1.156489 -2.973274 3 93 249 0.000006 1.000000
-1.333195 0.847709 1.509050 100 232 250 0.000004 1.000000
-0.042418 1.197002 -1.520700 173 134 150 0.000003 1.000000
3.576287 -2.899225 -7.803895 253 1 0 0.000963 1.000000
-0.932673 -2.421870 0.590342 156 211 197 0.002411 1.000000
2.269606 -3.701692 -1.577543 3 30 252 0.000595 1.000000
8.541597 -5.892663 -4.932682 0 250 254 0.108067 1.000000
6.621805 -5.504987 7.811038 0 0 254 0.135449 1.000000
1.131202 0.948560 4.313749 217 63 40 0.000005 1.000000
0.851164 1.124500 -1.909585 18 194 241 0.000005 1.000000
5.607668 0.199671 3.519336 19 21 38 0.000022 1.000000
-0.989977 1.460230 1.287900 16 52 222 0.000004 1.000000
-0.605561 1.542123 0.078712 231 211 218 0.000016 1.000000
-2.727393 1.033732 -0.378217 30 34 156 0.000004 1.000000
1.598248 -2.911426 -0.628583 54 119 240 0.008843 1.000000
-2.973643 -4.001523 0.931799 10 25 234 0.002143 1.000000
-0.678804 1.611761 0.259558 184 74 80 0.000746 1.000000
0.358953 1.558535 -0.445001 184 122 89 0.003984 1.000000
10.791921 -5.848638 -0.376315 231 254 254 0.279871 1.000000
1.109336 1.763882 -0.348496 67 115 165 0.000017 1.000000
-0.593635 -2.062396 0.207497 70 108 210 0.011748 1.000000
-0.057904 1.368780 -0.211240 48 158 241 0.000003 1.000000
1.227670 1.054728 -2.059748 8 36 233 0.000004 1.000000
-2.238241 1.291482 0.249401 6 13 241 0.000005 1.000000
1.518122 -2.919303 0.861710 237 239 246 0.002631 1.000000
-4.737020 -4.383980 -13.630233 0 0 0 0.197760 1.000000
-0.371675 -2.044388 -0.466636 161 113 154 0.041945 1.000000
0.050495 1.354578 0.069107 73 133 178 0.000189 1.000000
0.041756 1.551982 0.759038 74 90 188 0.000002 1.000000
1.429616 0.831474 -1.117142 169 192 200 0.000004 1.000000
-1.946544 -4.241853 -11.145602 254 0 0 0.030641 1.000000
-0.021320 1.578041 -0.478832 195 189 198 0.040352 1.000000
-3.336874 -1.302283 1.944143 25 253 253 0.000008 1.000000
-0.685526 1.623608 -0.384600 193 214 211 0.000090 1.000000
-1.036041 1.358596 2.509912 32 10 7 0.000005 1.000000
-1.891821 1.235321 2.297750 94 132 197 0.000005 1.000000
-1.125713 -2.660614 0.837945 152 214 213 0.002273 1.000000
10.843460 -7.665324 -9.749162 4 0 47 0.086429 1.000000
-0.080084 -0.927700 -4.174945 36 144 206 0.000008 1.000000
4.070766 -1.362147 -6.232057 0 247 254 0.000222 1.000000
-0.208338 1.073999 0.086027 198 138 162 0.000001 1.000000
1.555303 -2.868166 0.785410 31 18 147 0.000140 1.000000
-0.652909 1.447223 1.614439 206 240 248 0.000004 1.000000
-1.280887 1.466691 -0.693512 165 171 196 0.000003 1.000000
-1.992648 1.364472 1.056965 59 112 188 0.000005 1.000000
2.648428 -0.899041 -4.094490 9 196 252 0.000012 1.000000
-2.113045 1.067353 -0.370679 26 51 168 0.000004 1.000000
-2.775236 1.181065 -0.050525 27 25 159 0.000005 1.000000
6.044642 -0.576329 1.219906 244 243 228 0.000023 1.000000
7.268198 -5.680280 8.063849 253 254 254 0.180892 1.000000
0.399515 1.455609 -0.143167 76 185 235 0.000003 1.000000
-3.929611 -1.077184 -0.702788 178 38 38 0.000011 1.000000
0.786588 -2.005662 5.417477 244 24 15 0.000269 1.000000
7.518792 -6.032936 6.910512 13 254 254 0.144303 1.000000
-1.159254 1.137396 -0.830023 180 216 211 0.000003 1.000000
-0.081073 -1.053060 -4.811694 3 11 249 0.000024 1.000000
-2.595915 -1.011846 -3.168601 64 160 229 0.000011 1.000000
-0.088480 1.332246 0.125724 237 246 253 0.000002 1.000000
-2.315805 1.026149 0.273196 114 201 194 0.000004 1.000000
0.515398 1.011314 2.379346 1 59 246 0.000008 1.000000
-4.168799 -1.187557 -2.983643 12 169 240 0.000034 1.000000
1.522257 1.476729 3.182806 25 75 210 0.000005 1.000000
5.517650 -2.138186 8.501719 254 0 0 0.097801 1.000000
-0.216463 0.962929 -1.527284 112 47 144 0.000003 1.000000
4.642800 -1.301211 -4.228448 2 32 252 0.000194 1.000000
0.339876 1.082129 1.450410 75 193 235 0.000003 1.000000
-1.462528 -1.032785 -3.889340 9 86 242 0.000015 1.000000
-1.365542 -0.362757 1.213074 101 75 109 0.000014 1.000000
-4.076514 1.089971 -0.668106 5 237 253 0.000008 1.000000
-0.461639 1.543791 -0.238319 119 169 181 0.017722 1.000000
7.457668 1.668148 -5.428590 2 4 51 0.000015 1.000000
-0.095223 1.731004 1.146103 81 73 155 0.000004 1.000000
9.220530 -5.273240 0.980618 174 254 254 0.232853 1.000000
-2.035350 -4.427986 -8.033607 254 254 254 0.330322 1.000000
-0.075154 1.063821 -3.157865 4 7 141 0.000005 1.000000
-0.360566 1.638257 -0.787936 185 233 249 0.000010 1.000000
2.279570 -1.916620 -4.508022 248 10 8 0.000002 1.000000
-3.205531 -1.696813 -2.154624 94 159 198 0.000007 1.000000
1.635195 -2.831690 0.237954 25 45 224 0.000672 1.000000
-0.163993 -1.183946 -3.301779 28 55 187 0.000005 1.000000
4.693583 0.228220 2.774268 110 19 19 0.000009 1.000000
9.168372 -0.047771 -0.057131 0 4 254 0.000010 1.000000
3.865138 0.253282 2.401086 15 171 237 0.000003 1.000000
0.407638 1.663787 0.710449 95 156 177 0.017223 1.000000
-1.527415 -2.930443 -0.852357 26 11 48 0.003727 1.000000
0.564261 -3.118288 -1.919220 249 7 3 0.002387 1.000000
4.940465 -5.816015 2.647635 0 246 254 0.000063 1.000000
1.274977 1.775344 -0.390429 120 195 244 0.000004 1.000000
-1.550605 1.098571 4.197565 241 8 6 0.000006 1.000000
9.755416 -6.746920 -2.048757 2 16 254 0.072514 1.000000
-1.680429 1.036191 2.192700 199 16 21 0.000005 1.000000
0.207264 1.474770 -0.415643 216 102 182 0.000003 1.000000
-5.291126 -2.223519 -5.042671 254 254 254 0.000149 1.000000
3.169120 -1.107397 -5.224721 0 250 254 0.000034 1.000000
-0.158775 -1.725145 0.141908 17 79 231 0.003790 1.000000
-0.134947 1.260662 1.889485 190 226 233 0.000004 1.000000
0.974385 1.835248 0.756533 103 155 167 0.027045 1.000000
0.007158 1.711819 -0.947992 125 54 162 0.004048 1.000000
-0.770607 1.453339 3.109966 1 2 246 0.000006 1.000000
-4.644167 -5.497801 -2.149351 1 240 254 0.000531 1.000000
0.212749 1.646479 -0.911794 63 158 229 0.000004 1.000000
1.505330 -2.741700 -0.157931 52 168 201 0.005029 1.000000
1.405677 1.282842 -0.457780 62 129 223 0.000003 1.000000
4.630792 -1.849873 -3.328262 2 3 245 0.000047 1.000000
0.145956 -0.391976 -0.021550 39 123 226 0.999999 6.041337
0.188761 -0.182519 -0.308732 251 37 2 0.999999 6.588793
-5.461245 0.084507 -4.344683 247 1 2 0.000056 1.000000
0.999840 1.424056 1.768346 72 161 190 0.000004 1.000000
-4.167665 1.055954 -0.668485 35 219 233 0.000006 1.000000
-0.083674 -0.932073 -4.243074 11 150 248 0.000013 1.000000
-0.079842 -0.927136 -4.193406 24 126 231 0.000012 1.000000
-0.743986 -2.590706 1.100229 7 41 240 0.001296 1.000000
-0.439875 1.805657 -1.257142 143 89 135 0.000006 1.000000
-0.864542 0.921698 -1.404585 165 151 216 0.000003 1.000000
-0.084879 -1.787210 -0.259831 127 104 154 0.033097 1.000000
-2.555121 -3.793556 1.407567 101 240 246 0.000217 1.000000
2.131901 -3.615389 1.596678 8 203 253 0.000422 1.000000
1.168605 1.300319 -0.848995 39 155 239 0.000003 1.000000
-0.895368 1.850419 -1.093791 101 205 225 0.000008 1.000000
2.918019 -4.979107 3.518891 1 7 248 0.000017 1.000000
1.451495 1.274266 -1.016192 57 187 246 0.000004 1.000000
1.950778 0.906968 3.108818 53 98 172 0.000005 1.000000
-4.335153 1.203636 1.572715 222 28 21 0.000007 1.000000
-1.444988 1.243607 0.530348 209 189 215 0.000003 1.000000
-8.636916 1.226373 -4.651885 2 2 3 0.000013 1.000000
10.211665 -6.445937 -0.955815 62 252 254 0.129327 1.000000
10.682952 -6.039363 3.386216 254 254 254 0.371374 1.000000
-0.312269 -3.496049 -2.441853 28 14 155 0.001826 1.000000
-0.946790 1.415934 2.188825 126 194 212 0.000004 1.000000
0.237177 1.428694 0.245066 163 212 245 0.000005 1.000000
-0.574533 1.631440 -0.605721 117 163 169 0.000015 1.000000
8.794372 -5.682553 4.859518 18 254 254 0.126127 1.000000
-0.996367 1.669469 1.078686 129 142 190 0.000004 1.000000
-6.041059 -2.721587 5.055805 254 254 232 0.000010 1.000000
-3.846788 -1.988897 3.032162 13 244 249 0.000003 1.000000
-9.017694 0.814304 12.660439 0 0 254 0.237436 1.000000
-0.770839 -4.382397 -3.562825 22 1 5 0.000624 1.000000
-0.755114 1.687871 0.651846 166 170 146 0.000007 1.000000
0.059815 1.623062 0.798358 142 166 185 0.000020 1.000000
-0.253166 1.126006 0.699743 204 236 242 0.000002 1.000000
2.818952 -3.776484 0.480478 93 10 233 0.003472 1.000000
-2.841002 -1.092460 -3.506987 4 172 246 0.000024 1.000000
0.778134 -2.549500 -6.644020 127 65 143 0.000009 1.000000
0.368318 1.541304 0.444936 145 143 176 0.000072 1.000000
-0.535520 -1.975912 -0.022240 212 186 188 0.001266 1.000000
-7.906203 -0.101769 -2.940566 3 248 253 0.000055 1.000000
0.427332 0.129804 0.139475 70 136 221 0.999998 4.291011
0.030001 -1.041294 -4.138894 37 67 125 0.000010 1.000000
-2.051512 0.833384 1.918546 107 31 39 0.000005 1.000000
0.336627 1.773522 -1.149861 151 84 184 0.000013 1.000000
0.738206 1.849734 1.220478 124 148 157 0.000008 1.000000
-1.058629 -2.802486 -1.181164 22 12 89 0.002857 1.000000
-0.368514 1.189569 -1.567820 104 136 155 0.000003 1.000000
-4.762294 -2.132237 -3.230796 3 228 251 0.000013 1.000000
1.709750 1.163161 -2.707983 124 104 137 0.000005 1.000000
1.150574 1.333028 0.872286 92 167 210 0.000003 1.000000
3.117804 1.326513 0.963828 80 121 163 0.000005 1.000000
0.875789 1.121616 -2.568606 43 98 236 0.000005 1.000000
1.062732 0.958808 3.642504 18 45 246 0.000011 1.000000
4.036588 1.395091 0.656400 8 6 29 0.000006 1.000000
1.249268 0.932860 -3.401006 101 125 163 0.000005 1.000000
0.843552 -2.538386 0.931665 163 129 167 0.002604 1.000000
1.550279 -2.823260 -0.502788 222 32 32 0.000869 1.000000
5.069043 1.340217 -3.214343 3 3 9 0.000013 1.000000
3.628257 -1.428996 3.177278 238 240 254 0.000010 1.000000
-0.191013 1.537693 0.579176 109 239 236 0.000007 1.000000
-2.269580 0.125289 -3.637457 40 37 97 0.000013 1.000000
-0.911640 0.138779 17.433960 0 44 254 0.732982 1.000000
0.788525 1.519606 1.313634 175 183 202 0.000003 1.000000
-2.095191 -3.761405 1.993133 136 240 243 0.000065 1.000000
-1.214784 0.095652 -3.130251 142 72 108 0.000019 1.000000
-0.973974 1.108984 1.972053 12 36 239 0.000005 1.000000
9.568807 -0.058528 -0.095012 15 11 16 0.000026 1.000000
0.121747 1.353299 0.087057 215 213 206 0.000004 1.000000
-4.758917 -1.487040 -2.514086 11 5 11 0.000016 1.000000
-0.073319 -0.923532 -4.137326 15 76 224 0.000012 1.000000
-3.864120 -0.818170 -2.363588 121 190 232 0.000014 1.000000
0.059308 1.227699 1.722073 7 13 203 0.000003 1.000000
2.811027 1.410713 2.771837 23 31 159 0.000006 1.000000
17.683239 -7.035844 -5.124065 0 0 118 0.415237 1.000000
-2.339680 1.135222 -0.674494 19 6 17 0.000004 1.000000
-4.314968 0.067372 -2.072151 3 27 248 0.000033 1.000000
0.482306 -3.078442 9.261679 253 7 1 0.000016 1.000000
0.697436 1.612631 0.421291 125 185 118 0.000009 1.000000
-1.507543 -1.046267 -3.934648 20 218 240 0.000019 1.000000
2.063305 -3.237520 -0.528413 158 185 220 0.008416 1.000000
0.268616 1.528060 0.388965 88 150 162 0.024439 1.000000
0.096293 1.555916 -0.990537 122 187 228 0.000002 1.000000
0.214050 1.439779 -0.180694 180 188 208 0.002299 1.000000
1.092970 -3.317955 -2.007465 236 24 15 0.000701 1.000000
1.553454 1.117407 3.283410 9 8 155 0.000006 1.000000
3.565519 -1.651364 -3.181239 5 83 251 0.000006 1.000000
-4.587203 1.193178 -2.437650 10 13 41 0.000007 1.000000
-2.103779 1.071823 1.274648 180 84 117 0.000005 1.000000
9.279652 -3.092782 -2.022398 1 124 253 0.000025 1.000000
0.420647 -0.573756 0.159790 0 166 254 0.237860 8.928133
-2.549612 1.119906 1.616031 12 23 244 0.000006 1.000000
-2.600639 1.189786 -1.654923 11 24 215 0.000005 1.000000
6.693071 0.113654 -1.869300 4 44 244 0.000006 1.000000
-0.783431 1.197608 2.493804 123 203 232 0.000004 1.000000
-1.948402 1.200809 1.959936 16 56 242 0.000005 1.000000
-4.540223 -1.024552 -1.204849 12 199 242 0.000022 1.000000
0.755356 -2.616991 -1.146954 249 16 12 0.000850 1.000000
0.129782 1.586831 -0.744416 146 116 103 0.000004 1.000000
-0.364353 1.330574 0.729934 80 97 209 0.000002 1.000000
-3.021573 -3.944913 -0.446526 43 13 48 0.011681 1.000000
0.677258 1.011728 -0.658879 46 113 252 0.000002 1.000000
5.442954 0.099601 1.544534 6 8 36 0.000004 1.000000
1.827073 -5.454303 4.843598 168 253 254 0.000026 1.000000
-0.483972 1.548908 0.482230 164 221 219 0.000003 1.000000
-3.757907 -1.293662 2.087634 232 236 217 0.000017 1.000000
-3.044608 0.740208 0.591223 61 54 172 0.000004 1.000000
0.420097 1.720543 0.899380 45 190 236 0.001312 1.000000
1.586923 1.313051 2.466752 88 111 159 0.000004 1.000000
4.425498 -5.605479 -4.804668 2 1 17 0.000024 1.000000
-5.215172 -1.169763 -1.304235 16 98 221 0.000046 1.000000
1.433695 1.321479 -0.345130 180 136 97 0.000003 1.000000
-0.847488 1.665831 -0.368736 150 75 170 0.000017 1.000000
0.182422 1.563547 -0.539913 133 140 201 0.011286 1.000000
5.414480 -0.140280 -2.066942 3 241 252 0.000020 1.000000
-0.184589 1.636297 1.349436 6 40 242 0.000004 1.000000
-2.850889 -1.089265 -3.483807 8 241 252 0.000032 1.000000
-1.412349 -0.532857 -0.935940 171 244 248 0.000024 1.000000
4.084808 -3.641655 8.971776 254 254 254 0.000131 1.000000
-1.082579 0.114153 -2.846683 59 80 166 0.000012 1.000000
0.010310 -0.144570 0.297411 41 102 198 0.999999 5.317486
-0.076091 -0.901037 -4.068830 4 122 253 0.000014 1.000000
1.370306 1.266806 -0.568034 190 205 127 0.000003 1.000000
0.891027 1.774708 -0.807087 124 164 139 0.000012 1.000000
-0.705872 1.291304 -0.998539 133 187 206 0.000002 1.000000
1.476878 2.202602 1.972672 169 161 139 0.000005 1.000000
0.774966 1.740057 0.665902 148 174 202 0.003977 1.000000
6.135866 0.136601 -1.636110 7 28 228 0.000007 1.000000
0.374856 -1.863774 -0.049766 223 88 116 0.024442 1.000000
0.495313 1.569506 -0.426361 72 102 168 0.000050 1.000000
-0.097868 1.520127 -0.931678 181 161 150 0.000002 1.000000
2.098724 -5.375356 -15.251093 254 0 0 0.028018 1.000000
-2.158998 -3.260994 0.200625 2 250 253 0.004051 1.000000
-0.051880 -2.647322 -1.371295 210 157 163 0.017933 1.000000
0.277131 1.405557 0.019966 244 244 245 0.000005 1.000000
0.000298 0.949832 2.667367 14 33 252 0.000005 1.000000
0.305200 -1.803599 -0.058742 151 161 180 0.004793 1.000000
3.483739 -1.375972 5.184163 253 254 254 0.000032 1.000000
-4.059981 0.233772 -0.180615 9 111 244 0.000023 1.000000
1.314882 -2.731685 0.717678 6 167 252 0.005818 1.000000
-2.381854 0.120782 -3.787543 20 28 149 0.000009 1.000000
0.277689 -1.775668 -0.013494 4 160 252 0.005839 1.000000
-2.334092 1.158864 4.473173 233 37 23 0.000014 1.000000
-0.677717 1.455816 -0.654839 173 173 204 0.000002 1.000000
1.062705 -4.118564 8.677060 2 254 254 0.209940 1.000000
-1.694681 1.025738 1.890188 29 60 201 0.000005 1.000000
1.048125 1.757197 -0.708235 101 136 218 0.000004 1.000000
3.780904 -3.633896 -8.598712 250 2 1 0.000039 1.000000
1.725456 1.395829 2.155851 13 18 180 0.000005 1.000000
2.447911 -2.344299 5.296619 247 253 252 0.000003 1.000000
-5.839456 -1.849334 0.729319 1 253 254 0.000024 1.000000
5.185085 -1.883521 -2.665254 4 46 251 0.000018 1.000000
8.347757 -4.969158 -5.513567 246 254 254 0.204355 1.000000
0.913781 1.330615 5.239857 7 38 241 0.000007 1.000000
0.457130 1.670715 -0.847726 146 108 134 0.000004 1.000000
0.753053 1.783491 0.829051 67 170 237 0.014412 1.000000
-0.030080 1.270513 1.426314 65 18 75 0.000003 1.000000
0.247274 1.411945 -0.207468 167 210 239 0.000003 1.000000
5.606245 -6.619906 -3.458302 2 8 251 0.002395 1.000000
10.049807 -5.951720 0.904825 254 254 254 0.151596 1.000000
8.317029 -5.130274 3.586524 77 245 254 0.102696 1.000000
-2.134299 1.151814 5.405479 252 3 1 0.000010 1.000000
1.678807 -3.216636 -1.424039 83 67 58 0.000060 1.000000
-0.840678 1.906136 -1.331642 161 160 155 0.000006 1.000000
-2.600508 -1.053408 -3.226711 16 15 131 0.000008 1.000000
-4.597611 -1.649066 -4.982695 8 228 246 0.001528 1.000000
-6.148007 -0.058979 -3.060343 9 217 251 0.000148 1.000000
2.126405 -3.343793 0.759371 8 180 246 0.011565 1.000000
-0.038274 1.710034 -0.947147 144 150 181 0.003635 1.000000
-0.422195 1.438426 -1.253994 158 132 141 0.000003 1.000000
-0.265935 1.772645 1.229909 96 131 199 0.000004 1.000000
2.879230 1.214569 2.215694 3 56 249 0.000006 1.000000
0.346841 0.987313 -2.757979 11 13 251 0.000005 1.000000
-0.606694 1.724718 -0.751058 171 117 162 0.010768 1.000000
-1.366186 0.818683 1.084833 136 215 235 0.000004 1.000000
0.925470 -2.286674 -0.030924 94 204 229 0.006257 1.000000
-4.803810 -2.371043 2.576616 15 252 253 0.000269 1.000000
-0.608044 -3.340824 -2.192073 221 21 24 0.001440 1.000000
-1.979202 -3.283919 -1.007456 15 7 17 0.001194 1.000000
2.392430 -4.049572 -2.095645 5 81 248 0.005827 1.000000
0.063862 1.418899 0.355548 120 214 237 0.000002 1.000000
-3.273781 0.145675 -2.564582 15 15 135 0.000011 1.000000
3.163672 -4.107141 -0.924596 1 4 251 0.000414 1.000000
-1.326356 1.810381 -0.037835 111 139 157 0.000006 1.000000
2.482312 -4.137652 -2.307455 86 12 27 0.000107 1.000000
13.016634 -0.182070 -0.496653 2 1 2 0.000669 1.000000
5.660297 -1.350385 -4.961675 3 228 250 0.006324 1.000000
-1.031929 1.790338 0.713440 47 133 177 0.000010 1.000000
14.826284 -7.452145 -0.016703 178 177 186 0.999902 1.000000
7.497348 0.150963 -2.212126 15 10 15 0.000036 1.000000
-1.589236 1.100134 2.545855 243 170 69 0.000005 1.000000
0.539225 -3.187772 -2.024084 3 4 58 0.002188 1.000000
-1.085905 1.577591 0.767442 126 140 197 0.000003 1.000000
0.228334 1.383344 0.061444 159 216 246 0.000004 1.000000
-3.573098 -1.327536 2.023823 157 220 221 0.000010 1.000000
0.431850 1.516086 0.244347 184 223 239 0.000670 1.000000
6.609761 -5.426268 8.108941 254 254 254 0.157708 1.000000
-1.654688 1.236134 -2.222163 12 57 228 0.000005 1.000000
0.306973 1.513974 0.342338 179 179 166 0.003038 1.000000
1.787368 1.630981 -0.117996 144 138 127 0.000003 1.000000
-1.145747 1.257228 2.039587 7 12 207 0.000004 1.000000
0.681210 -2.727823 8.117878 253 4 1 0.000012 1.000000
3.012002 -2.812374 6.642336 248 250 253 0.000005 1.000000
6.666003 0.051767 1.796574 3 1 4 0.000009 1.000000
-2.197205 1.315212 0.394929 68 224 247 0.000005 1.000000
-4.776876 -1.723961 2.621790 50 253 254 0.000033 1.000000
-0.777189 1.596863 -0.058975 160 203 239 0.000004 1.000000
-2.226146 1.466731 1.675149 5 9 233 0.000006 1.000000
-0.758900 0.969456 -1.433287 212 185 194 0.000003 1.000000
7.234862 -5.572015 8.468153 254 254 254 0.133826 1.000000
-1.983648 0.935043 3.038097 24 5 3 0.000006 1.000000
1.517410 1.148859 0.106061 92 177 220 0.000003 1.000000
-0.542333 1.564175 -0.453816 84 184 223 0.000006 1.000000
3.098139 -3.896397 0.431756 193 92 101 0.000018 1.000000
-1.389724 -1.113240 -3.752967 75 32 74 0.000006 1.000000
1.224778 -2.563172 -0.376770 33 130 213 0.003116 1.000000
-4.244884 -1.212084 -3.014494 32 179 220 0.000023 1.000000
0.415254 1.649825 -0.825800 65 193 241 0.000004 1.000000
10.124211 -5.404626 2.592394 254 254 254 0.284175 1.000000
1.306800 1.350909 -0.585792 91 146 213 0.000003 1.000000
1.526894 1.138074 0.486276 216 140 114 0.000003 1.000000
0.757855 -3.513064 2.453063 218 250 251 0.000085 1.000000
10.504487 -6.334810 0.637876 253 254 254 0.262462 1.000000
-3.929184 0.163817 -1.612201 34 59 214 0.000020 1.000000
1.289068 1.917483 -0.944472 61 124 180 0.000008 1.000000
0.077711 -1.049500 -3.671688 221 152 194 0.000011 1.000000
-1.587316 1.147059 2.397831 171 185 208 0.000006 1.000000
-2.324664 -3.939958 -1.932694 54 8 10 0.005147 1.000000
0.751597 -2.509399 0.966747 62 179 216 0.001401 1.000000
0.340213 1.472502 0.000979 89 234 221 0.020713 1.000000
-1.965360 -3.192666 0.811331 114 227 243 0.000215 1.000000
-2.407786 0.125969 -3.834838 46 84 120 0.000008 1.000000
-0.537440 1.475114 -0.755523 162 198 204 0.000002 1.000000
1.738953 1.345333 6.340751 4 253 254 0.000028 1.000000
0.699478 0.362203 -6.731021 254 0 0 0.000257 1.000000
1.494385 1.082678 -0.392229 215 119 49 0.000003 1.000000
0.209591 1.742123 -11.763778 254 0 0 0.000036 1.000000
3.505478 -1.198991 -5.609370 0 250 254 0.000044 1.000000
-0.448701 1.623341 -0.591935 249 233 135 0.001300 1.000000
1.064796 -2.535614 0.656767 105 151 194 0.002179 1.000000
0.143370 -1.845965 0.331933 123 202 157 0.010684 1.000000
0.854282 -3.059638 1.793913 86 177 222 0.000072 1.000000
5.768127 0.087540 1.624048 13 11 20 0.000005 1.000000
-0.388322 1.650421 0.835247 175 171 226 0.000004 1.000000
7.908106 -5.357307 5.634948 244 254 254 0.170041 1.000000
-1.696449 0.296378 -2.721885 179 215 240 0.000004 1.000000
1.042116 1.028119 -2.938325 25 52 191 0.000005 1.000000
0.390491 1.309960 2.417849 8 12 216 0.000004 1.000000
-4.390785 0.241745 -0.200308 204 162 156 0.000012 1.000000
-0.941770 1.383805 1.538541 17 83 243 0.000004 1.000000
2.735351 -4.130628 -1.944801 15 19 166 0.000069 1.000000
-0.312187 1.515593 -1.017230 204 238 252 0.000003 1.000000
-2.424799 0.119119 -3.894656 53 80 167 0.000015 1.000000
-0.372903 1.476438 0.241815 171 194 195 0.000009 1.000000
1.563365 -3.259206 1.545174 10 246 250 0.001295 1.000000
-0.046366 -1.748149 -0.232119 134 201 174 0.006214 1.000000
-5.405397 -0.153175 0.058431 232 231 237 0.000005 1.000000
0.308063 0.883989 1.355099 14 64 248 0.000003 1.000000
0.809687 1.662082 -0.399714 238 108 82 0.000052 1.000000
9.971759 -6.036722 -2.529877 217 249 254 0.177440 1.000000
0.836658 0.871665 1.745121 43 58 135 0.000003 1.000000
-3.855719 -4.268003 -6.591555 254 254 254 0.685688 1.000000
1.667113 1.096418 -2.086878 6 24 239 0.000004 1.000000
-0.367616 1.206522 -1.025848 61 126 201 0.000002 1.000000
1.770135 -3.277218 -1.337979 206 172 208 0.000492 1.000000
-0.858792 1.696107 0.458088 95 117 205 0.000075 1.000000
-0.030855 1.567898 -0.690911 56 215 225 0.000007 1.000000
1.327953 -3.319837 1.868407 17 93 230 0.000112 1.000000
0.873949 -2.245219 0.175041 147 194 235 0.001634 1.000000
-3.535826 -1.030525 -2.336685 26 225 241 0.000013 1.000000
0.437801 0.081744 -1.332146 232 218 223 0.000004 1.000000
-0.696407 1.614342 0.363192 119 205 241 0.000024 1.000000
-1.036329 1.370350 0.149905 56 173 243 0.000002 1.000000
1.057539 1.305408 1.819751 8 22 239 0.000004 1.000000
0.624255 -2.072573 0.118586 100 129 140 0.067992 1.000000
0.871396 1.858546 -1.142711 42 177 239 0.000009 1.000000
-4.265844 0.947806 -0.573304 30 38 90 0.000011 1.000000
-0.566033 1.635713 -0.701743 204 119 95 0.000003 1.000000
23.705729 -7.200272 -2.271437 0 137 254 0.311229 1.000000
0.077728 0.982559 -1.585977 219 222 232 0.000003 1.000000
0.301077 1.474222 0.357759 137 176 198 0.000004 1.000000
5.902709 -2.208129 -3.094744 5 6 250 0.000012 1.000000
0.337574 0.215391 0.086373 63 135 215 0.999998 3.910433
-0.832171 -2.395005 -0.618761 170 187 200 0.047395 1.000000
-0.429903 1.262763 1.841699 10 99 249 0.000004 1.000000
-1.153242 -1.052931 -3.270893 115 116 221 0.000004 1.000000
0.425783 1.583642 -0.440303 65 54 176 0.023316 1.000000
0.264828 -2.035538 -0.602084 231 143 65 0.000060 1.000000
1.980375 -3.504834 -1.563060 89 3 7 0.000332 1.000000
-2.661809 -1.036190 -3.294898 5 100 246 0.000017 1.000000
-1.344568 1.188797 0.657269 52 41 154 0.000003 1.000000
-1.955370 1.610047 1.037077 51 73 185 0.000004 1.000000
-4.949222 0.360755 -3.790626 232 244 242 0.002553 1.000000
0.249671 1.260625 2.283956 42 13 56 0.000004 1.000000
0.207815 1.159101 2.477250 41 84 182 0.000004 1.000000
-7.078948 -3.552938 -3.904387 2 218 251 0.000178 1.000000
-3.499294 0.131111 -2.736623 7 12 203 0.000012 1.000000
-1.107469 1.170789 -1.319620 197 189 167 0.000003 1.000000
-0.612403 1.631667 0.693012 109 99 136 0.000003 1.000000
-3.712708 -0.524519 -2.016207 177 226 231 0.000024 1.000000
1.466304 1.567125 -0.683682 79 124 194 0.000003 1.000000
0.396161 -2.366302 -0.962684 93 166 222 0.001574 1.000000
-1.023177 1.770489 -0.669072 115 187 212 0.000008 1.000000
4.846402 -5.266284 2.575531 254 254 254 0.000024 1.000000
-0.572019 1.368655 1.663923 121 187 188 0.000003 1.000000
7.671011 0.009226 0.102086 6 14 211 0.000016 1.000000
-0.768340 1.837576 -1.148326 199 162 180 0.000007 1.000000
2.387751 -3.982947 -2.072119 5 1 22 0.000142 1.000000
0.304801 -1.895504 0.295142 90 110 182 0.009250 1.000000
3.871091 -1.300369 -3.571213 216 29 21 0.000008 1.000000
-0.535951 1.635024 0.711097 76 113 182 0.000004 1.000000
2.364628 -3.482413 0.617898 0 20 254 0.007596 1.000000
7.266918 -4.854077 -8.413764 254 254 254 0.185226 1.000000
2.525931 -3.678379 -1.222946 2 235 254 0.000067 1.000000
9.690015 -5.258473 3.293742 0 4 254 0.109935 1.000000
-1.169420 0.844823 -1.736169 51 77 177 0.000003 1.000000
-2.099822 -4.068350 8.725371 63 254 254 0.301471 1.000000
7.376802 -2.326760 -3.670533 0 249 254 0.000013 1.000000
1.380187 0.953663 -0.707740 19 169 240 0.000003 1.000000
6.966403 -0.433230 0.935259 0 36 253 0.000395 1.000000
0.879840 1.127304 2.350044 26 72 236 0.000004 1.000000
-0.516075 1.212031 -1.305466 89 146 171 0.000003 1.000000
-0.876107 -2.142636 5.320386 26 23 110 0.000006 1.000000
-0.019593 1.687145 0.979504 69 137 215 0.000019 1.000000
-0.062488 0.736490 -1.833108 180 142 128 0.000003 1.000000
-0.341102 1.706120 1.003967 197 202 222 0.000005 1.000000
9.633603 -0.056000 2.973413 2 17 249 0.000971 1.000000
-0.124443 1.232756 -0.859465 237 127 132 0.000002 1.000000
-0.755049 1.149587 -1.280989 201 205 221 0.000003 1.000000
-1.072798 -2.664237 -0.890459 159 228 241 0.009454 1.000000
1.226042 1.797159 -0.483337 126 139 155 0.000004 1.000000
0.753063 -2.431100 -0.825449 129 100 179 0.004255 1.000000
0.560856 1.614278 -0.431531 96 57 158 0.004564 1.000000
-0.324503 1.591462 -0.642045 133 139 208 0.000030 1.000000
0.878880 -2.796608 -1.362026 3 9 243 0.000276 1.000000
-2.546374 -3.881593 -1.482595 65 64 240 0.011815 1.000000
-0.785127 1.617882 -0.104030 123 114 185 0.000023 1.000000
-0.343931 1.474036 -0.071052 196 146 135 0.012349 1.000000
-0.974335 -4.297832 -3.372363 7 6 243 0.001789 1.000000
2.076905 -3.483153 1.298902 140 195 201 0.004085 1.000000
-0.156810 1.330565 -0.066187 128 187 185 0.000002 1.000000
0.636049 1.567960 -0.124257 194 180 200 0.000067 1.000000
-2.956235 -4.509996 -10.265884 254 0 0 0.000120 1.000000
15.241410 -4.311681 2.592310 0 118 254 0.097319 1.000000
0.152053 1.426690 -0.290124 217 229 222 0.000004 1.000000
-1.897802 1.180656 -1.060800 163 87 119 0.000004 1.000000
4.273314 -5.111139 1.654204 1 243 252 0.000490 1.000000
0.426221 1.429659 1.698677 51 177 249 0.000004 1.000000
0.085472 1.210389 -1.486389 33 81 180 0.000003 1.000000
1.692286 -3.304606 -1.526156 2 18 253 0.000479 1.000000
-1.474599 -3.498447 -0.950200 6 80 249 0.022772 1.000000
-4.594641 -1.676810 2.489096 46 209 239 0.000035 1.000000
7.200829 -7.152902 -0.842284 0 31 254 0.005880 1.000000
-1.655075 1.264127 -7.332056 12 10 23 0.000155 1.000000
5.814819 -0.229404 0.519859 33 223 240 0.000027 1.000000
0.182270 1.584845 -0.703249 78 179 212 0.000008 1.000000
-1.486464 1.522789 1.638962 54 177 247 0.000004 1.000000
-0.113356 1.282580 -1.504968 132 88 108 0.000003 1.000000
-0.499458 1.473771 -0.035695 166 215 247 0.000003 1.000000
-2.108577 0.744511 1.227671 177 157 165 0.000005 1.000000
0.317762 -2.904391 1.745854 13 26 130 0.000215 1.000000
0.219803 1.971207 1.832653 159 194 195 0.000005 1.000000
0.427384 1.591175 -0.603826 171 215 196 0.000009 1.000000
2.781001 -0.953506 -4.332441 4 10 236 0.000011 1.000000
0.268620 1.685020 1.365306 34 139 221 0.000004 1.000000
5.234056 0.196844 3.221145 2 8 244 0.000009 1.000000
-4.079979 -0.458362 -0.760267 235 233 232 0.000036 1.000000
0.303665 1.612909 -0.701912 146 101 142 0.000059 1.000000
-1.639981 1.274291 0.044753 35 58 224 0.000004 1.000000
0.611550 1.561483 -0.306406 190 143 174 0.000005 1.000000
0.723692 1.314945 -1.658535 63 122 170 0.000003 1.000000
-0.184406 1.363525 0.017369 220 198 216 0.000003 1.000000
-2.415444 0.116001 -3.843464 17 21 116 0.000011 1.000000
9.415023 -0.024926 2.943007 4 200 248 0.000086 1.000000
0.991079 1.803955 -1.038966 139 137 142 0.000004 1.000000
2.011631 -3.465986 1.466998 0 15 250 0.000166 1.000000
0.648042 -2.600948 -1.198301 189 159 166 0.000474 1.000000
-3.711537 -1.087669 -2.542492 23 61 213 0.000014 1.000000
1.190314 1.372922 1.434139 80 113 122 0.000003 1.000000
-2.514201 0.776761 -0.295322 124 120 177 0.000004 1.000000
-0.819332 -3.296799 -2.061465 244 6 9 0.002930 1.000000
0.348786 1.582332 0.511531 157 228 247 0.015566 1.000000
0.234600 1.180654 -0.887939 58 152 201 0.000002 1.000000
2.144079 -4.003314 2.316022 13 43 238 0.001313 1.000000
10.127284 -6.177357 -1.766307 12 0 2 0.135974 1.000000
-0.880516 1.610662 -0.007672 148 129 158 0.000004 1.000000
-3.789379 0.165700 -1.562139 5 74 241 0.000013 1.000000
2.658918 0.208696 0.388165 219 212 215 0.000005 1.000000
2.705297 -0.925617 -4.203804 3 25 248 0.000011 1.000000
-0.060903 -0.037202 -0.257754 1 121 250 0.999999 4.963954
3.804773 -5.380700 8.982027 0 0 254 0.093586 1.000000
1.387210 -2.807928 -0.787294 41 204 234 0.006328 1.000000
-0.777830 1.414505 1.309945 64 122 138 0.000003 1.000000
-4.135451 -1.322281 -2.764306 15 3 4 0.000011 1.000000
-0.394727 1.526822 1.558340 53 134 215 0.000003 1.000000
-4.181886 1.049693 -0.692197 3 9 211 0.000008 1.000000
-3.251373 -4.813906 -11.067587 254 0 0 0.000807 1.000000
7.402189 -7.359125 -1.614055 3 2 249 0.002739 1.000000
-0.118962 1.544222 2.403406 20 55 180 0.000005 1.000000
-1.477113 1.268448 -0.147000 164 134 115 0.000003 1.000000
-0.601700 1.541287 0.277686 158 211 238 0.000003 1.000000
-3.585239 -1.381969 2.015333 31 240 245 0.000007 1.000000
-3.788124 -1.407063 2.087997 129 228 232 0.000009 1.000000
-1.670426 1.690198 0.031118 167 218 174 0.000005 1.000000
7.226785 -5.816674 -1.285108 2 0 254 0.000613 1.000000
-1.502960 1.440815 2.188546 112 110 134 0.000004 1.000000
-3.741947 0.245825 -0.173088 29 174 220 0.000014 1.000000
1.035179 -2.618563 -0.871021 87 110 182 0.002696 1.000000
-1.554309 1.250131 1.689336 167 85 133 0.000004 1.000000
2.692263 -3.777472 -0.978783 8 145 248 0.000545 1.000000
0.561475 -2.901377 -1.638368 28 10 21 0.000620 1.000000
-9.434002 -3.048701 1.188413 0 254 254 0.000233 1.000000
-6.452150 0.993084 -3.536713 14 14 49 0.000051 1.000000
1.750463 -2.928871 0.060951 30 8 78 0.002014 1.000000
2.139953 -3.682556 1.716561 1 249 254 0.000607 1.000000
-1.972672 1.549708 0.864217 127 119 156 0.000004 1.000000
1.758090 -2.981155 -0.364481 18 96 227 0.036421 1.000000
3.558033 -4.382141 -0.866531 0 230 254 0.000303 1.000000
-0.580782 -2.916949 -1.625276 5 36 246 0.003502 1.000000
-5.140020 -1.433586 -0.884539 246 237 250 0.000024 1.000000
-0.358285 1.067067 3.468152 3 41 250 0.000006 1.000000
1.366630 -3.001994 -1.291246 132 109 168 0.000287 1.000000
1.383877 -2.745987 0.643158 121 144 195 0.002103 1.000000
0.563228 1.202344 -1.329906 145 190 228 0.000003 1.000000
6.374315 -5.651298 0.165122 0 6 254 0.000074 1.000000
0.477668 1.735775 1.467365 111 132 173 0.000004 1.000000
-0.088366 -0.934519 -4.273518 4 217 251 0.000016 1.000000
-0.162270 -0.364594 4.485731 160 116 69 0.000007 1.000000
-1.112721 -3.442996 -2.150653 100 34 57 0.002510 1.000000
0.004070 -0.643447 0.144676 254 254 254 0.598029 4.548000
-0.514502 1.767104 -1.106255 153 153 159 0.000006 1.000000
0.602596 -2.054532 0.192114 179 132 125 0.004232 1.000000
0.284819 1.625568 -0.746791 178 128 208 0.000047 1.000000
4.053837 1.456886 6.075750 245 6 5 0.000117 1.000000
-1.106194 1.604087 1.269292 53 129 176 0.000004 1.000000
1.161476 1.243382 2.275765 132 149 162 0.000004 1.000000
0.551724 1.541909 0.332460 139 149 148 0.000010 1.000000
-2.252836 0.129586 -3.586684 5 23 240 0.000008 1.000000
2.727595 -0.924048 -4.208057 1 206 254 0.000016 1.000000
-2.112292 0.155293 -3.378444 103 77 100 0.000007 1.000000
-3.794427 0.164664 -1.563282 4 68 246 0.000015 1.000000
4.846382 0.128197 1.395210 36 32 78 0.000003 1.000000
1.538543 1.230549 -2.105331 76 119 160 0.000004 1.000000
-3.486283 1.025521 2.038935 7 13 249 0.000006 1.000000
0.745961 0.929127 1.157178 21 20 152 0.000003 1.000000
0.176729 -3.033706 -1.868864 254 0 0 0.017349 1.000000
0.152779 0.800406 -1.464009 60 149 173 0.000003 1.000000
-3.745155 1.297375 -1.802467 12 12 22 0.000006 1.000000
-2.555954 -0.999876 -3.138309 29 164 221 0.000011 1.000000
-1.237915 -1.191104 -3.340500 146 181 194 0.000008 1.000000
2.121893 1.093251 -2.211573 5 5 15 0.000005 1.000000
-4.250010 0.156938 -3.371698 18 21 33 0.000117 1.000000
0.742419 1.577395 0.150035 26 165 245 0.000004 1.000000
-0.883876 1.099801 2.684655 118 158 196 0.000005 1.000000
0.044496 0.016340 0.012829 113 190 242 0.999997 3.804061
2.338293 1.274320 1.804769 17 23 206 0.000005 1.000000
-3.028018 -3.944436 -0.148720 6 232 251 0.005812 1.000000
-1.499562 -2.556206 7.983198 254 2 0 0.000040 1.000000
-0.353743 1.496555 -0.219656 72 97 180 0.003595 1.000000
9.758445 -1.043854 -1.387355 2 3 10 0.000474 1.000000
-4.342978 0.982655 -2.519533 3 6 243 0.000009 1.000000
-2.438275 -1.334768 -3.020195 149 148 202 0.000005 1.000000
-3.481313 1.061780 -1.413876 9 4 22 0.000005 1.000000
1.942523 -3.760720 2.114095 19 253 254 0.000337 1.000000
-4.585448 -2.507003 3.745986 31 27 27 0.000006 1.000000
0.362776 1.244358 -1.482804 27 165 245 0.000003 1.000000
2.637756 1.284894 2.857321 1 2 253 0.000008 1.000000
3.274394 -5.493669 -3.972577 1 18 252 0.000074 1.000000
0.364502 1.476838 0.117460 55 100 195 0.001671 1.000000
-4.430091 -0.755575 2.484636 15 159 231 0.000015 1.000000
0.523281 -3.276852 -2.210429 54 73 156 0.000108 1.000000
-0.694602 1.628093 -0.284707 197 224 233 0.004123 1.000000
-12.132959 -1.999264 -0.097673 0 13 254 0.000013 1.000000
-2.511133 -1.116637 -3.116400 27 7 17 0.000008 1.000000
-3.699289 -0.523493 -2.009587 194 217 221 0.000020 1.000000
-2.025656 0.171812 -3.283290 81 140 181 0.000004 1.000000
2.534111 -3.713263 1.273816 43 99 209 0.000068 1.000000
0.252675 1.494036 1.821491 13 60 238 0.000004 1.000000
2.787559 -3.746780 0.202542 0 2 253 0.004922 1.000000
-2.808433 -2.342196 5.257155 94 20 15 0.000007 1.000000
8.482344 -0.012119 2.368727 6 5 10 0.000040 1.000000
1.561838 -2.845380 0.533626 100 157 179 0.001232 1.000000
7.683934 -6.382430 3.951993 254 254 254 0.001550 1.000000
0.984345 1.739516 0.159737 51 179 233 0.063570 1.000000
-4.678925 -7.481865 -19.509129 254 0 0 0.092659 1.000000
1.356463 1.883640 -0.675318 54 127 205 0.000010 1.000000
9.331753 -5.365650 2.537684 254 254 254 0.280110 1.000000
-0.071435 -0.993964 -4.517839 0 6 251 0.000016 1.000000
-0.095130 1.519854 -0.516725 124 228 233 0.000089 1.000000
1.559660 1.522495 0.429036 197 198 226 0.000004 1.000000
4.446062 -7.243218 -13.582330 254 0 0 0.082256 1.000000
-1.077295 1.254748 2.233996 116 26 28 0.000004 1.000000
-0.245370 1.601663 -0.611158 158 157 176 0.024717 1.000000
-0.679622 1.542923 -0.115853 207 214 212 0.000003 1.000000
1.322252 1.155716 0.605260 169 159 170 0.000003 1.000000
-0.010907 -0.664656 -4.235491 86 5 17 0.000006 1.000000
-4.757236 1.127319 -0.858657 5 8 52 0.000007 1.000000
0.463395 1.794720 -1.206723 133 160 138 0.000006 1.000000
0.571414 1.601907 -0.556121 115 113 155 0.000004 1.000000
0.682683 -2.137028 -0.294663 167 148 133 0.002477 1.000000
2.365395 0.959386 -1.603932 10 26 228 0.000005 1.000000
-0.054147 1.492822 -0.512295 67 135 218 0.000005 1.000000
-1.381891 -0.994058 -3.697528 47 159 193 0.000009 1.000000
-1.016316 1.712667 0.067360 85 188 206 0.000061 1.000000
0.212107 1.092280 3.219316 18 60 222 0.000005 1.000000
-1.689920 1.226413 -0.080891 41 52 188 0.000003 1.000000
3.747916 -0.927875 3.180103 38 106 188 0.000007 1.000000
-6.443264 1.227372 -1.032448 254 36 3 0.000013 1.000000
0.309561 1.505945 0.283023 201 160 191 0.026479 1.000000
2.011739 -3.456035 1.389808 47 144 221 0.000403 1.000000
10.491146 -4.763819 -0.815042 0 0 254 0.079750 1.000000
-2.247666 1.163352 1.845552 16 59 232 0.000006 1.000000
4.358518 -1.216111 -3.924585 17 165 238 0.000057 1.000000
0.104708 1.534416 -0.132335 176 176 192 0.018068 1.000000
-2.136126 1.254688 5.070621 244 17 8 0.000013 1.000000
4.823567 1.345887 2.006962 12 2 3 0.000008 1.000000
0.098673 -0.098356 0.341651 48 115 206 0.999998 5.421928
-10.514769 -4.378604 -2.124037 0 254 254 0.193183 1.000000
10.288430 -5.376218 0.534802 243 253 254 0.202002 1.000000
-0.647183 1.118582 1.367899 83 205 227 0.000003 1.000000
-0.525897 1.533368 0.351572 139 196 225 0.000003 1.000000
-0.786929 -2.585430 1.057607 69 205 192 0.001298 1.000000
1.373910 1.388095 -0.148107 152 106 171 0.000003 1.000000
2.293369 -3.788167 -1.708849 90 187 235 0.001003 1.000000
-2.351911 -1.909372 4.092560 18 122 186 0.000003 1.000000
-6.106362 -0.115881 4.991754 254 1 0 0.000057 1.000000
7.765953 -5.877372 6.443340 254 254 254 0.115235 1.000000
1.673718 -2.876967 -0.247718 37 75 212 0.004724 1.000000
-0.582804 1.289781 -0.481430 152 190 211 0.000002 1.000000
-1.670015 -1.110971 -4.201869 3 213 251 0.000032 1.000000
1.777839 -1.326694 -6.187921 235 33 14 0.000998 1.000000
-1.463582 -1.027630 -3.869830 12 185 244 0.000019 1.000000
0.896068 1.515578 -8.278594 254 0 0 0.000014 1.000000
10.650318 -5.778897 -1.720989 0 97 254 0.122082 1.000000
1.359267 1.213848 3.034213 2 8 251 0.000006 1.000000
-0.760031 1.629939 -0.158069 114 110 141 0.000921 1.000000
7.992953 -3.473581 -9.416752 0 204 254 0.001523 1.000000
2.175349 -3.587932 -1.434170 1 3 248 0.001312 1.000000
-1.475153 -1.040688 -3.920994 8 51 240 0.000015 1.000000
-1.262411 1.237740 1.968574 55 69 174 0.000004 1.000000
-0.476151 1.005423 -1.203791 115 174 191 0.000002 1.000000
1.868065 -3.304059 1.243252 4 19 243 0.001068 1.000000
0.462588 1.472601 0.097528 86 173 175 0.000003 1.000000
1.440115 0.895980 -0.994678 9 36 245 0.000004 1.000000
-4.032036 1.032746 -0.206650 5 7 26 0.000005 1.000000
0.870832 1.684873 -0.042425 122 97 149 0.012061 1.000000
-2.744634 -1.058324 -3.357471 13 209 240 0.000019 1.000000
-0.256795 0.790750 1.671109 76 186 243 0.000006 1.000000
0.852372 1.623845 -0.223348 108 198 165 0.000003 1.000000
-0.265550 1.445504 -0.260530 199 198 196 0.000008 1.000000
0.549005 1.542148 0.511041 160 200 207 0.000003 1.000000
-0.058356 1.623146 0.859046 162 192 222 0.000003 1.000000
5.279292 -5.642651 -0.985215 0 1 254 0.000061 1.000000
2.084265 0.335695 -38.839512 0 0 0 0.111916 1.000000
-0.290188 1.258939 2.438190 9 13 107 0.000005 1.000000
-0.515469 1.149120 5.356485 1 8 252 0.000039 1.000000
0.446309 1.736245 -1.034733 108 147 179 0.000007 1.000000
-2.106524 0.808488 1.459152 18 110 245 0.000004 1.000000
