ply
format ascii 1.0
element vertex 839
property float x
property float y
property float z
property uchar red
property uchar green
property uchar blue
property float opacity
property float scale
end_header
-5.267899 -2.507340 2.579219 0 254 254 0.095190 1.000000
0.578876 1.677132 -0.693549 142 98 191 0.003082 1.000000
0.848096 0.970601 2.759540 96 126 181 0.000016 1.000000
-0.600097 1.539943 0.052867 173 192 211 0.000200 1.000000
-0.311638 1.458931 0.173764 161 174 177 0.003139 1.000000
-1.894278 -3.030263 -0.082642 165 254 254 0.008336 1.000000
-4.242746 -0.937874 -1.115980 12 220 250 0.000093 1.000000
-0.789549 0.701349 -1.098093 92 176 164 0.000005 1.000000
6.786638 -2.259749 -1.369268 1 247 253 0.000110 1.000000
6.974336 -3.977625 0.661452 1 147 254 0.168398 1.000000
-0.451013 -0.055660 -2.198075 108 238 246 0.000040 1.000000
-2.380146 -0.946649 -2.901177 3 188 253 0.000373 1.000000
0.966357 0.931251 -1.381024 96 170 204 0.000011 1.000000
-1.679798 -4.010931 2.799365 6 254 254 0.000547 1.000000
4.060596 -1.139324 -3.761264 4 217 250 0.000324 1.000000
0.907056 0.968771 2.145842 44 59 155 0.000014 1.000000
0.499408 1.213534 2.144646 17 33 224 0.000022 1.000000
6.076466 -2.928399 0.801193 0 0 254 0.205429 1.000000
-0.069469 -1.004171 -4.623765 5 46 233 0.000057 1.000000
-0.478116 0.991496 -0.271928 129 118 162 0.000005 1.000000
-0.218384 1.404653 -0.245885 75 179 205 0.000005 1.000000
-0.337970 1.000266 0.504354 172 219 221 0.000004 1.000000
-0.279462 1.498198 0.478032 146 151 210 0.000008 1.000000
-1.465428 -1.011478 -3.858757 21 137 207 0.000039 1.000000
-0.067147 1.316144 0.024824 141 184 184 0.000006 1.000000
0.756052 0.860964 1.279250 83 155 220 0.000012 1.000000
-1.501832 0.871765 -0.187171 61 83 191 0.000014 1.000000
-2.648925 -1.873911 -5.239809 253 232 252 0.008527 1.000000
-0.130196 -0.542314 4.808532 242 21 10 0.000119 1.000000
1.170505 0.958109 -2.313789 18 52 227 0.000028 1.000000
-1.710019 0.936231 0.498710 12 42 221 0.000013 1.000000
3.325420 -1.328391 2.925064 246 248 252 0.000092 1.000000
-0.239091 -0.521744 -2.140270 233 250 252 0.000013 1.000000
-3.712523 -1.645001 -2.560689 3 236 250 0.000127 1.000000
-1.159521 -3.155105 -1.761810 10 16 229 0.000328 1.000000
-0.209635 -2.564026 -1.330324 41 135 202 0.000214 1.000000
-0.152472 0.780546 -1.667307 200 156 197 0.000009 1.000000
0.228764 -1.943184 0.477601 192 184 196 0.000407 1.000000
-2.892144 -0.460191 -1.637226 29 247 253 0.000064 1.000000
-1.547798 -3.225207 -5.642608 253 254 254 0.154202 1.000000
-2.718042 0.878695 -1.798017 2 99 251 0.000033 1.000000
-1.254237 -0.921601 -3.474417 29 95 200 0.000051 1.000000
0.799553 1.235448 0.107389 43 129 239 0.000010 1.000000
0.104917 0.941682 -2.915723 252 253 253 0.980230 1.000000
2.397566 0.994628 -1.800600 7 16 227 0.000037 1.000000
7.080885 -3.082801 1.243262 1 6 254 0.129823 1.000000
-2.179727 0.957667 0.073792 26 65 170 0.000019 1.000000
1.748522 0.979564 -0.479707 208 171 175 0.000014 1.000000
0.520585 0.727033 -0.847459 71 117 213 0.000008 1.000000
-0.337588 1.047955 0.828931 59 125 199 0.000004 1.000000
-0.673095 0.744944 -1.263690 66 177 197 0.000005 1.000000
-0.590670 1.086887 4.306558 77 6 8 0.000028 1.000000
-0.040901 -1.916578 -0.469429 45 110 227 0.005123 1.000000
0.861278 1.108265 2.597479 109 113 181 0.000014 1.000000
-3.786448 0.249873 -0.078817 112 162 133 0.000042 1.000000
-0.761541 0.605455 5.210307 254 254 254 0.139107 1.000000
0.903371 1.082111 -0.066791 187 163 146 0.000004 1.000000
-0.991311 1.152767 -1.067075 169 132 195 0.000007 1.000000
-2.515311 0.866753 1.129507 88 12 18 0.000018 1.000000
0.777007 0.894263 -1.077041 54 157 211 0.000009 1.000000
2.287118 -3.339691 -0.181436 8 11 241 0.003298 1.000000
-2.822830 -1.102056 -3.436247 5 18 227 0.000255 1.000000
5.433800 -4.700509 6.555604 252 254 254 0.178354 1.000000
5.891260 -0.165306 -0.883107 8 22 242 0.000198 1.000000
-0.271636 1.295949 0.528517 149 228 248 0.000007 1.000000
6.594514 -0.881703 -0.837963 5 249 252 0.000086 1.000000
-0.020349 -1.669648 -0.152245 86 178 220 0.006783 1.000000
-2.456866 -0.970714 -2.983158 12 194 244 0.000057 1.000000
3.443773 -2.530058 -5.614188 254 1 0 0.033002 1.000000
0.660087 -3.437362 -8.868247 254 1 0 0.011743 1.000000
-0.233534 -2.343831 -0.966227 219 151 132 0.048382 1.000000
0.030460 -0.028474 -0.291591 0 123 247 0.999989 4.648169
-3.617691 0.113653 -3.075638 8 9 19 0.000337 1.000000
-0.406507 -0.901657 0.379647 142 213 221 0.000045 1.000000
0.927263 1.053564 3.916317 8 11 116 0.000044 1.000000
-0.820636 0.914139 2.576834 41 128 161 0.000031 1.000000
0.013267 0.750839 1.733764 53 90 247 0.000021 1.000000
0.149413 1.295508 0.331080 117 160 166 0.000004 1.000000
1.099036 -0.964592 4.335658 211 153 77 0.000186 1.000000
-2.326061 -1.037791 -2.894159 16 7 41 0.000031 1.000000
0.065499 1.366297 0.025933 183 174 220 0.025677 1.000000
-3.810825 -1.552373 2.078402 13 57 223 0.000104 1.000000
5.702383 -4.764299 -1.001839 0 1 250 0.003467 1.000000
3.509572 -1.746478 -3.464918 1 3 246 0.000179 1.000000
-0.966725 1.244229 -0.434156 66 176 164 0.000004 1.000000
0.579461 -2.419389 -0.964723 182 68 87 0.001729 1.000000
-0.087398 1.327782 0.831089 52 120 194 0.000006 1.000000
-0.511839 0.932444 -0.772868 130 93 137 0.000003 1.000000
-1.432225 1.128832 1.648119 180 82 150 0.000010 1.000000
2.224286 -1.694344 -8.240685 254 0 0 0.035566 1.000000
4.058255 -1.137368 -3.761301 2 206 252 0.000442 1.000000
0.092282 1.442024 -0.924426 137 208 226 0.000010 1.000000
0.264917 0.844190 -0.797919 176 141 163 0.000004 1.000000
-0.106919 -0.911563 -4.148901 2 145 249 0.000064 1.000000
1.056984 -2.500654 0.633594 16 55 227 0.001088 1.000000
2.988024 -3.829689 -0.061727 3 234 253 0.001615 1.000000
0.020033 1.024083 -0.991004 100 176 218 0.000005 1.000000
-1.100196 0.987134 -0.538780 78 110 193 0.000008 1.000000
-5.690136 -3.186416 2.806098 2 254 254 0.068699 1.000000
-2.904320 0.781985 0.458902 139 104 186 0.000012 1.000000
1.675173 -3.061494 1.019044 8 10 241 0.001898 1.000000
-2.573265 -1.013485 -3.149231 21 132 229 0.000035 1.000000
0.847669 1.040436 2.824961 8 23 235 0.000033 1.000000
7.214333 0.101750 -2.019887 0 1 164 0.000474 1.000000
2.355708 1.044556 -2.909845 17 47 215 0.000023 1.000000
-1.468195 -1.008863 -3.890417 2 235 252 0.000268 1.000000
0.348744 -2.956968 -1.845174 254 0 0 0.004859 1.000000
-0.886280 1.114237 0.167987 134 211 231 0.000005 1.000000
2.533816 1.054852 1.896546 8 15 240 0.000042 1.000000
-1.978858 -0.062707 -2.278822 38 45 183 0.000165 1.000000
0.145339 0.848286 0.937397 41 101 247 0.000007 1.000000
1.357539 0.975149 0.671557 122 190 225 0.000012 1.000000
-0.358691 1.022610 -0.660837 160 96 146 0.000004 1.000000
-2.631093 0.828870 0.655364 224 187 131 0.000015 1.000000
5.607950 -3.465671 -1.817626 189 252 254 0.170199 1.000000
-0.722426 1.643765 0.266124 250 253 254 0.938824 1.000000
-0.709396 0.823347 1.358535 14 48 224 0.000013 1.000000
-0.849636 1.308986 0.556685 155 172 185 0.000005 1.000000
-2.502598 -1.975343 4.615533 7 251 252 0.000060 1.000000
-0.980545 1.180615 2.295107 101 5 14 0.000017 1.000000
-0.572928 -3.905834 -3.012106 15 5 9 0.009488 1.000000
2.840284 -3.469634 1.144549 0 17 254 0.001789 1.000000
3.236589 -4.163931 0.798693 1 250 252 0.011544 1.000000
-0.046307 -1.775254 0.293803 43 83 200 0.002272 1.000000
1.039123 1.130861 1.042882 155 123 169 0.000008 1.000000
1.018982 -2.423272 -0.495365 125 105 206 0.001633 1.000000
1.974635 -2.116054 -4.665218 7 45 236 0.000018 1.000000
5.097375 -3.398776 -1.902555 253 240 252 0.172894 1.000000
-0.728846 0.884904 1.121220 84 165 209 0.000021 1.000000
-1.033978 0.087363 -2.730405 17 54 187 0.000036 1.000000
1.010638 -2.580915 -0.906677 244 37 34 0.001226 1.000000
7.743292 -4.387341 0.499306 252 254 254 0.240613 1.000000
-0.602422 0.870024 0.414136 145 173 199 0.000005 1.000000
0.660853 -2.404858 0.914480 35 208 239 0.000646 1.000000
0.285430 1.401377 0.064417 162 204 121 0.000006 1.000000
1.236869 1.030415 -0.528592 160 129 170 0.000009 1.000000
-0.132165 -0.891687 -3.906081 8 19 206 0.000083 1.000000
-1.439348 1.025041 -1.174826 158 129 187 0.000016 1.000000
-5.219543 -0.927147 -1.486719 4 14 243 0.002777 1.000000
0.306853 -4.322388 3.594396 250 41 6 0.001505 1.000000
0.039228 1.545105 0.550775 82 132 199 0.004602 1.000000
-1.699136 0.938523 -0.677236 105 160 202 0.000009 1.000000
-5.418441 -2.173307 -1.498189 0 0 9 0.003516 1.000000
0.436244 1.213648 -1.389677 69 82 176 0.000008 1.000000
-0.969739 0.868064 1.623823 7 22 237 0.000025 1.000000
1.374484 1.090381 20.512400 0 0 254 0.265046 1.000000
1.553140 -2.955119 -0.929187 132 43 71 0.002081 1.000000
-2.798328 -4.342949 -12.069844 254 0 0 0.069437 1.000000
-1.715329 0.967691 2.293259 202 28 30 0.000027 1.000000
-2.866140 0.155325 -2.281843 37 35 118 0.000046 1.000000
-1.295858 0.027451 -3.432908 21 197 237 0.000055 1.000000
-0.813853 1.720225 -0.554994 191 120 214 0.002271 1.000000
-0.872182 -2.698743 1.187587 129 180 182 0.003032 1.000000
2.830084 0.999652 2.546201 6 6 40 0.000021 1.000000
7.980256 -2.437328 0.673016 0 253 254 0.000406 1.000000
-3.169536 -0.389347 0.563493 206 7 17 0.000205 1.000000
0.391181 -0.032361 -0.159130 1 129 254 0.999996 6.114165
-2.561208 1.087942 0.889194 14 17 183 0.000017 1.000000
-0.326815 0.885579 -0.425244 127 224 241 0.000004 1.000000
-3.709341 -0.825605 -2.346642 79 235 238 0.000062 1.000000
1.158530 -2.471320 -0.089765 12 34 251 0.039933 1.000000
6.106759 -2.055539 0.519917 0 238 254 0.009595 1.000000
2.229357 -1.351157 3.588867 251 252 253 0.000144 1.000000
3.171258 -4.054103 0.452692 7 28 245 0.022996 1.000000
0.077379 -3.201713 2.150114 7 8 118 0.000686 1.000000
-2.487336 0.155463 -1.969104 60 156 232 0.000158 1.000000
0.964754 -2.836173 1.394264 201 244 247 0.000426 1.000000
0.318176 1.019243 1.300510 147 178 225 0.000009 1.000000
6.704516 -4.367841 -0.999826 217 253 254 0.168104 1.000000
2.050597 1.023641 -2.864243 6 8 110 0.000028 1.000000
-1.368067 0.946415 0.740866 59 165 214 0.000011 1.000000
-3.127065 -1.289710 1.689033 13 239 249 0.000083 1.000000
3.628372 -1.038195 -3.238509 2 25 249 0.000256 1.000000
-2.589154 -1.016486 -3.143151 4 135 247 0.000080 1.000000
-3.476698 0.178401 -1.387812 5 14 220 0.000076 1.000000
-0.759013 -1.693130 -3.404086 38 161 190 0.000039 1.000000
0.585871 1.600313 0.318386 86 172 139 0.110434 1.000000
3.729591 -1.059484 -3.365796 3 189 248 0.000071 1.000000
-2.237273 -0.965349 5.167799 20 19 159 0.000130 1.000000
2.742601 -0.916042 -4.243275 0 249 254 0.000124 1.000000
0.488566 0.021248 0.064137 70 143 215 0.999995 6.463985
1.147649 -0.634036 -4.067969 15 83 221 0.000037 1.000000
5.798644 -4.592874 -5.559713 10 60 250 0.128453 1.000000
-4.586401 1.023873 -0.777957 4 6 24 0.000040 1.000000
-1.710110 -0.626974 -1.591028 39 224 233 0.000085 1.000000
-0.857881 -2.897081 -1.511759 70 226 248 0.008175 1.000000
-3.420459 -1.692294 3.997520 236 250 251 0.003097 1.000000
2.231595 -3.626978 -1.605688 70 219 249 0.000516 1.000000
4.583502 0.127139 1.294028 8 7 48 0.000017 1.000000
1.467953 1.453047 -0.247753 96 159 155 0.000008 1.000000
-2.451781 1.002904 0.624607 25 72 187 0.000012 1.000000
-0.996961 0.863920 2.447459 9 41 241 0.000050 1.000000
-1.425609 -0.995087 -3.796331 24 93 222 0.000033 1.000000
-0.730182 1.099156 1.332740 35 28 218 0.000011 1.000000
5.635057 0.109457 1.541302 151 9 11 0.000027 1.000000
1.860956 1.002260 3.053580 7 16 246 0.000049 1.000000
0.109100 1.383171 -0.168591 154 133 188 0.000039 1.000000
-0.008265 -1.106252 -3.997893 166 128 167 0.000020 1.000000
-0.656399 1.636244 -0.414129 82 153 171 0.007207 1.000000
-0.405087 -2.005122 0.442073 142 183 172 0.000746 1.000000
7.223591 -4.633246 4.870307 254 254 254 0.252309 1.000000
-2.362959 -0.937185 -2.861586 1 246 253 0.001173 1.000000
-1.551265 0.961854 -0.917759 168 183 184 0.000010 1.000000
0.810775 0.920986 -0.575761 103 68 167 0.000004 1.000000
-0.000733 0.069440 -0.144180 110 176 242 0.999992 4.952893
0.423304 1.568618 -0.503816 98 51 175 0.000216 1.000000
-1.068671 -0.033891 -0.860531 62 188 242 0.000041 1.000000
0.360475 1.570632 0.565771 123 208 253 0.001640 1.000000
-3.193212 -0.958949 -2.146232 16 163 235 0.000053 1.000000
-2.290425 0.815730 1.270939 229 119 66 0.000042 1.000000
-0.246626 0.869134 0.431261 180 199 217 0.000004 1.000000
1.697843 -3.835082 -11.294031 254 1 0 0.013469 1.000000
0.881901 0.971420 3.554644 9 41 252 0.000061 1.000000
5.638688 -1.204125 2.228298 7 157 246 0.000222 1.000000
-1.005405 1.247161 0.137629 158 148 157 0.000005 1.000000
0.661833 -2.060096 -0.107274 240 97 48 0.001186 1.000000
0.554968 1.312183 -0.554296 93 145 137 0.000006 1.000000
-0.764037 -2.179919 -0.222846 121 178 193 0.007689 1.000000
8.969821 -3.469998 1.782232 0 0 254 0.168548 1.000000
-1.762483 0.864172 1.557108 192 180 192 0.000014 1.000000
0.114925 1.663210 0.009132 163 131 152 0.213439 1.000000
-3.243016 0.190782 -1.300958 8 20 214 0.000042 1.000000
-1.972689 0.920298 -1.129976 111 186 194 0.000013 1.000000
0.168619 0.944463 0.453847 92 155 205 0.000005 1.000000
-2.750758 -2.088581 4.898599 1 254 254 0.001434 1.000000
5.061330 -4.436208 5.182077 1 93 254 0.156922 1.000000
0.377242 -1.849544 -0.049313 114 93 112 0.004571 1.000000
-4.104424 0.890978 -0.637558 6 12 181 0.000056 1.000000
2.272783 -1.216630 -4.774833 253 5 3 0.000517 1.000000
0.790131 0.904670 -1.760421 87 41 59 0.000014 1.000000
2.821885 -4.048716 -1.744219 1 230 253 0.001397 1.000000
5.115794 0.106014 1.430699 12 14 74 0.000014 1.000000
1.058149 -2.921302 -7.690681 254 0 0 0.026089 1.000000
-0.151678 1.646970 0.686610 152 95 154 0.156419 1.000000
1.423724 0.796361 -0.620049 50 249 253 0.000025 1.000000
-0.791403 1.387895 -0.589164 37 173 236 0.000007 1.000000
-1.343878 0.929161 0.407386 123 171 172 0.000007 1.000000
0.913809 -2.469471 -0.737051 146 140 95 0.002627 1.000000
6.450077 -1.767942 -6.331537 0 254 254 0.044361 1.000000
-0.432165 1.631052 -0.654189 115 175 116 0.001343 1.000000
1.329113 -0.765848 -5.838393 5 11 212 0.000738 1.000000
1.506032 -2.830731 0.621943 72 57 108 0.012984 1.000000
0.785368 -2.459724 0.879890 224 248 242 0.001823 1.000000
0.348991 1.300107 1.955704 81 157 157 0.000012 1.000000
-1.337077 1.202826 -1.018573 53 196 178 0.000009 1.000000
-3.505114 -1.345804 -0.478679 4 227 250 0.000089 1.000000
-0.052852 0.923899 0.665899 29 110 208 0.000005 1.000000
7.129846 -2.318536 2.769936 0 248 254 0.027678 1.000000
2.114191 1.009348 2.802407 49 87 191 0.000025 1.000000
-0.116749 0.896180 3.007927 28 51 230 0.000051 1.000000
2.079560 1.035875 2.502954 9 25 235 0.000036 1.000000
-3.799275 -2.014911 -2.181044 68 50 153 0.000511 1.000000
-2.408516 1.013164 -0.410841 68 69 148 0.000011 1.000000
-3.691376 -0.863174 4.828998 253 8 1 0.069832 1.000000
-0.032644 1.067978 2.759317 21 78 214 0.000020 1.000000
-1.365966 -0.967867 -3.683794 20 179 228 0.000059 1.000000
2.332758 -1.007487 -3.726426 239 22 51 0.000088 1.000000
-0.822235 0.948277 2.673331 4 10 237 0.000031 1.000000
3.587542 0.238819 2.238888 15 229 245 0.000016 1.000000
3.014511 -3.527195 1.031516 4 3 253 0.001268 1.000000
0.764450 1.625182 -0.358229 47 152 193 0.000021 1.000000
-0.413829 0.938139 2.143242 15 26 237 0.000023 1.000000
1.565904 0.957744 1.138153 79 110 208 0.000012 1.000000
-1.177107 1.016520 2.976223 12 175 247 0.000077 1.000000
0.043415 1.429563 -0.387954 176 190 217 0.000005 1.000000
0.204094 -0.217397 -0.326872 252 49 11 0.999991 6.345363
0.475653 -0.551079 0.099460 0 163 254 0.273964 7.516731
-3.328460 -4.164711 0.638506 1 2 62 0.005392 1.000000
1.136486 -2.452030 -0.214901 139 147 223 0.005874 1.000000
3.874723 -2.497584 7.350350 254 1 0 0.045278 1.000000
-0.607905 1.083225 1.396211 21 81 227 0.000012 1.000000
-0.090273 0.776070 -0.972383 59 171 245 0.000005 1.000000
-3.310200 0.932588 0.781121 15 22 227 0.000034 1.000000
-0.385985 1.518760 -0.375812 208 95 111 0.000227 1.000000
1.385577 -0.480707 -2.759607 74 124 204 0.000141 1.000000
7.116156 -2.359698 -1.516077 0 37 254 0.006828 1.000000
-0.019695 -1.582912 -0.025511 132 158 158 0.004736 1.000000
5.681043 -0.677842 -0.752086 6 248 251 0.000193 1.000000
2.256459 -2.477768 -5.002892 254 203 1 0.007021 1.000000
-3.401928 1.011681 0.325584 9 10 246 0.000030 1.000000
-2.631266 -3.069118 -8.036787 237 0 0 0.042683 1.000000
2.280575 -3.500276 1.154545 2 21 252 0.003801 1.000000
0.366130 0.190942 0.129007 67 128 220 0.999989 4.369183
0.643243 1.022762 1.865712 13 73 232 0.000015 1.000000
0.695708 1.146373 -1.152183 149 75 145 0.000008 1.000000
-0.909399 0.894472 2.738471 215 155 91 0.000016 1.000000
1.008235 -3.628939 2.500114 230 49 26 0.001108 1.000000
0.877939 1.659287 0.063336 185 190 201 0.000323 1.000000
-0.023638 -1.690720 -0.177782 106 182 190 0.003395 1.000000
0.439613 0.996158 -0.295168 92 118 215 0.000006 1.000000
-0.076410 -0.970033 -4.428204 0 5 253 0.000263 1.000000
-0.419114 0.926808 -1.066774 162 177 203 0.000004 1.000000
-3.631181 0.234863 -0.076564 80 137 139 0.000040 1.000000
4.774432 -1.819691 -2.447508 1 2 248 0.000880 1.000000
15.983020 -3.401407 1.358327 0 254 254 0.202292 1.000000
3.835310 -1.081214 -3.526720 1 240 253 0.000438 1.000000
5.915421 -0.012790 0.671319 72 34 52 0.000499 1.000000
-0.839519 -2.704931 -5.684110 3 4 251 0.014531 1.000000
0.333698 0.888234 -0.431912 147 57 148 0.000004 1.000000
0.664821 1.794371 1.354721 108 133 200 0.000011 1.000000
-0.819532 1.185809 2.571023 25 30 182 0.000032 1.000000
-0.543475 1.013654 0.133962 188 200 226 0.000005 1.000000
0.502535 0.988063 -1.560469 146 147 157 0.000008 1.000000
-2.940996 1.235784 0.969206 25 24 190 0.000016 1.000000
0.108959 1.373950 -0.183964 113 142 195 0.000010 1.000000
-2.937052 -0.769837 3.182588 208 101 62 0.000208 1.000000
1.266925 1.231230 -0.762996 111 157 157 0.000007 1.000000
-1.867036 0.255770 -1.547074 161 196 219 0.000008 1.000000
1.974597 -3.519694 -1.608865 24 171 241 0.001809 1.000000
-1.492974 0.544792 1.308056 165 168 212 0.000033 1.000000
-1.040576 -0.790924 1.997350 207 179 227 0.000028 1.000000
-0.000081 0.927027 1.771762 19 139 233 0.000016 1.000000
-2.345956 0.971525 -0.174766 9 38 232 0.000016 1.000000
-0.480068 0.922657 1.723962 68 30 142 0.000015 1.000000
0.690260 1.800353 0.954531 72 128 209 0.005645 1.000000
5.413390 0.209346 3.406574 2 2 6 0.000258 1.000000
0.088685 1.329789 0.574092 73 123 188 0.000005 1.000000
7.027917 -4.706802 4.004671 207 253 254 0.171829 1.000000
-2.411742 -1.895806 4.183235 19 181 223 0.000018 1.000000
-3.693952 0.830463 -0.298926 89 42 81 0.000108 1.000000
-1.375337 -0.618055 -1.193595 231 15 50 0.000110 1.000000
0.666687 0.977882 0.472759 104 141 246 0.000007 1.000000
3.408702 -4.571857 -7.987820 254 254 254 0.602133 1.000000
0.748555 1.236164 1.026623 48 127 218 0.000008 1.000000
-0.620252 1.004604 4.088131 17 46 222 0.000032 1.000000
-0.892353 0.830822 -1.210134 113 83 190 0.000007 1.000000
-3.158682 -0.952075 -2.071719 22 115 227 0.000024 1.000000
-1.594362 -3.699401 -6.097446 250 253 254 0.236425 1.000000
6.719512 -4.355236 0.677625 223 254 254 0.199297 1.000000
0.466527 -2.867571 -2.330775 0 12 252 0.000501 1.000000
0.539263 1.154854 -0.504053 127 200 217 0.000005 1.000000
1.664300 1.019431 -0.679567 30 195 237 0.000015 1.000000
-1.019195 0.989266 -0.868066 157 168 167 0.000006 1.000000
1.571428 -2.989301 -1.004120 2 23 252 0.004371 1.000000
6.019183 -4.267512 -3.145546 0 6 254 0.110417 1.000000
5.264187 -0.304959 0.760831 17 32 90 0.000336 1.000000
0.841960 -4.022169 -8.316042 254 254 254 0.680238 1.000000
1.165715 0.902353 0.826746 210 149 106 0.000011 1.000000
0.276149 -1.844530 0.264239 159 192 197 0.002441 1.000000
-4.385270 -1.599291 0.471043 13 235 244 0.000145 1.000000
-2.754094 0.915531 1.694574 8 26 220 0.000023 1.000000
-2.197983 -0.889005 -2.677294 39 145 233 0.000062 1.000000
4.914957 -4.363881 2.474233 0 3 254 0.006354 1.000000
1.532379 -1.816446 -4.572067 254 1 0 0.001046 1.000000
0.070054 -1.614204 0.032108 130 131 161 0.003346 1.000000
0.991846 -2.618605 -0.957553 149 183 148 0.004372 1.000000
0.043065 0.871033 2.781804 57 155 223 0.000024 1.000000
-3.931772 -0.885349 -0.972583 9 202 245 0.000073 1.000000
7.142783 -4.298291 1.567773 1 238 253 0.006386 1.000000
0.212820 1.414288 0.086368 139 130 177 0.002223 1.000000
-0.075626 1.524854 -0.530945 163 41 145 0.000830 1.000000
-0.868778 0.803468 1.085523 11 252 254 0.000084 1.000000
-3.889978 -3.018587 -3.003818 254 254 254 0.186828 1.000000
1.034991 0.965578 0.264418 110 186 242 0.000006 1.000000
-0.333343 1.022891 3.558127 11 9 87 0.000023 1.000000
9.065888 -1.743713 -1.892380 0 254 254 0.046203 1.000000
-4.051247 -4.394361 -6.580131 254 254 254 0.804654 1.000000
-0.520232 1.511952 -1.087889 147 198 213 0.000008 1.000000
0.445161 1.621705 0.582388 149 194 104 0.023686 1.000000
6.949706 -4.984130 3.909128 2 227 254 0.169636 1.000000
0.750212 1.156013 -0.367799 193 108 123 0.000005 1.000000
0.324864 -1.838614 0.198068 148 200 240 0.001253 1.000000
-0.115043 1.000213 0.211986 207 233 229 0.000005 1.000000
10.232069 -4.303322 -3.203532 0 0 135 0.175727 1.000000
6.540455 -2.136366 -3.288254 0 253 254 0.000784 1.000000
-2.100357 0.813059 -0.133982 77 33 83 0.000018 1.000000
0.261345 1.469275 -0.397661 76 104 173 0.000007 1.000000
-3.125847 -1.136501 -1.906954 198 129 132 0.000015 1.000000
-0.952046 1.249703 1.322172 23 42 240 0.000023 1.000000
-0.896455 -2.220561 5.779338 1 251 252 0.000072 1.000000
-0.783357 0.802774 -1.467227 68 180 194 0.000009 1.000000
-0.120770 -0.892384 -3.997153 4 38 246 0.000048 1.000000
2.511357 1.284667 2.653351 76 174 192 0.000016 1.000000
-1.447632 0.916095 -1.014979 143 112 119 0.000009 1.000000
0.205826 0.954097 0.041814 220 230 243 0.000007 1.000000
0.865509 -2.268481 -0.349283 197 12 19 0.001793 1.000000
6.626447 -4.113740 2.523264 0 0 254 0.178228 1.000000
-0.244846 1.028584 -0.451329 139 195 241 0.000005 1.000000
-0.049902 -0.698637 0.047238 254 254 254 0.515993 5.395354
-4.053958 -0.373082 -0.737571 224 228 234 0.000159 1.000000
-3.917532 -2.235983 -1.353054 5 95 247 0.000894 1.000000
-0.730931 0.896544 -1.315949 99 106 157 0.000008 1.000000
3.291992 1.013642 1.783129 122 13 13 0.000099 1.000000
-2.433525 -1.885451 4.277380 6 249 252 0.000041 1.000000
0.156201 1.341687 -1.473782 148 117 121 0.000012 1.000000
-3.469329 -1.646747 3.496827 230 251 251 0.000512 1.000000
-1.720492 0.863648 1.867862 87 152 235 0.000018 1.000000
1.061637 0.978802 -0.017662 193 233 243 0.000006 1.000000
-1.099969 0.856274 1.464155 21 109 228 0.000015 1.000000
1.150198 -1.657371 -3.342294 35 122 237 0.000493 1.000000
1.240506 0.356517 -1.398146 190 241 253 0.000014 1.000000
-0.122050 0.085456 0.112294 115 197 251 0.999985 5.279644
-0.950423 0.778296 -1.870653 88 31 54 0.000010 1.000000
2.308114 1.090546 2.570454 22 60 187 0.000024 1.000000
-2.105582 0.865922 -2.429051 9 101 225 0.000019 1.000000
7.058251 -4.314796 2.115490 0 0 253 0.196181 1.000000
0.916486 1.708897 -0.343898 155 201 199 0.001603 1.000000
6.150275 -0.767788 -0.797314 1 253 254 0.000147 1.000000
4.583147 -1.527481 -4.205063 234 5 4 0.000169 1.000000
-0.824764 -2.162279 0.156288 139 221 227 0.000081 1.000000
-0.385515 -2.942433 -1.766499 28 173 248 0.004531 1.000000
-3.901540 -3.183019 6.542486 250 254 254 0.107656 1.000000
0.787498 1.040118 1.269271 57 37 97 0.000009 1.000000
-3.800019 -1.467480 2.113534 88 225 235 0.000070 1.000000
-0.157248 0.889017 1.881814 15 25 221 0.000012 1.000000
-1.941718 0.964692 1.108947 110 152 221 0.000018 1.000000
-0.315452 0.978053 3.878134 189 88 72 0.000050 1.000000
2.210092 -3.591322 -1.363526 139 11 20 0.013673 1.000000
0.946042 0.205110 -1.840650 87 245 246 0.000056 1.000000
-0.700775 1.036783 -0.193132 189 160 183 0.000003 1.000000
7.244663 -0.955296 -1.095493 7 5 7 0.000374 1.000000
-2.722018 0.847368 -1.462542 6 62 245 0.000017 1.000000
-5.092588 -1.739649 -5.474766 0 253 254 0.012882 1.000000
-0.023401 -0.306437 -5.228710 252 5 2 0.000133 1.000000
-0.688756 1.016989 0.504491 59 179 232 0.000005 1.000000
-3.148956 -0.944014 -1.999087 14 240 248 0.000043 1.000000
3.192568 -3.552567 7.360390 254 254 254 0.142050 1.000000
-8.462466 -5.353833 -3.519675 252 254 254 0.286589 1.000000
-6.100802 -2.174024 0.676160 11 243 250 0.010445 1.000000
-4.194959 -3.180279 -1.791038 254 254 254 0.146053 1.000000
-0.332299 1.028960 0.059833 84 45 185 0.000004 1.000000
0.248324 0.924759 -1.022559 81 140 164 0.000004 1.000000
-0.441844 0.842696 -1.342181 191 156 131 0.000007 1.000000
6.732660 -4.275700 -0.734515 225 253 254 0.168091 1.000000
7.367554 -4.338625 -1.134872 0 3 254 0.131123 1.000000
0.041746 1.093907 2.697167 61 124 197 0.000032 1.000000
1.618663 -3.312064 -2.216206 15 72 230 0.000046 1.000000
-1.085558 1.056502 0.441613 213 211 228 0.000006 1.000000
5.742825 -0.618105 0.811548 0 5 252 0.000758 1.000000
0.387979 -0.086698 0.184958 42 111 218 0.999998 7.280123
4.373454 -0.996323 -4.007299 1 68 252 0.000539 1.000000
-3.256409 -1.322884 1.767350 28 242 248 0.000069 1.000000
1.234589 -2.759224 -7.346056 254 251 2 0.000284 1.000000
1.371810 -0.896603 -1.409130 236 229 232 0.078527 1.000000
-1.705622 -3.850815 -5.881925 253 253 254 0.057092 1.000000
-0.845253 0.234105 -3.933849 52 73 136 0.000052 1.000000
-4.430977 -2.010735 -1.307888 4 17 243 0.000445 1.000000
0.952661 0.338391 -0.395304 115 193 239 0.006303 1.000000
-8.634055 -5.090285 2.260432 0 250 254 0.072456 1.000000
-1.021774 -2.595708 0.876161 80 210 212 0.002565 1.000000
0.498198 -1.937950 0.052245 205 231 241 0.019262 1.000000
-1.227875 0.783877 -0.861555 17 19 34 0.000014 1.000000
2.181758 -3.439171 1.116673 3 16 249 0.003774 1.000000
6.399652 -4.053660 0.130427 0 1 254 0.182185 1.000000
-2.164414 0.136692 -3.450915 4 32 242 0.000052 1.000000
0.301621 -3.187628 2.160999 51 252 252 0.000122 1.000000
8.637353 -2.058379 -1.775553 0 254 254 0.084202 1.000000
-0.529364 0.827640 1.669490 26 38 181 0.000015 1.000000
0.463923 0.935753 -0.895923 93 53 164 0.000004 1.000000
-3.833246 0.114494 -3.293491 6 7 15 0.000227 1.000000
0.132869 0.705721 -0.779488 60 115 226 0.000004 1.000000
1.647115 1.293910 -0.566502 118 124 170 0.000009 1.000000
-4.168584 -0.717503 -2.565760 9 17 211 0.000528 1.000000
1.179939 1.641214 -0.634854 126 105 183 0.000009 1.000000
6.445776 -4.076042 3.863109 253 254 254 0.223227 1.000000
-1.728112 -0.604904 -1.568360 27 182 241 0.000318 1.000000
0.235529 0.968827 0.804269 19 87 231 0.000005 1.000000
-0.111668 0.310295 -2.968068 225 239 244 0.000049 1.000000
0.738894 -2.745465 -7.528512 254 1 0 0.017843 1.000000
5.741541 -3.478999 1.635138 232 253 254 0.216902 1.000000
-0.111101 -3.376229 -2.341515 215 7 6 0.004644 1.000000
22.233316 -5.534856 -1.380383 0 175 254 0.363667 1.000000
1.916554 0.927574 0.445616 129 194 185 0.000010 1.000000
1.294713 1.083465 2.997000 25 32 191 0.000020 1.000000
-1.754792 -2.994925 -0.566620 14 95 247 0.009685 1.000000
0.381022 0.964425 -0.716538 178 179 194 0.000006 1.000000
0.791989 1.584575 -0.112762 131 184 218 0.000022 1.000000
-1.634368 -3.807938 -2.435311 241 250 253 0.007137 1.000000
-0.688484 1.584801 -0.164013 112 141 183 0.000140 1.000000
2.795195 0.237644 -0.259754 217 215 144 0.000012 1.000000
0.053706 1.665357 -0.848498 130 149 214 0.005113 1.000000
0.263934 -1.955254 -0.489960 253 223 229 0.003201 1.000000
5.883176 0.149455 -1.515148 4 15 224 0.000136 1.000000
6.539756 -2.009154 0.533632 0 251 254 0.000275 1.000000
0.363219 0.877340 2.091279 183 235 243 0.000025 1.000000
1.642960 0.110734 1.534078 9 34 246 0.000174 1.000000
-2.204790 0.858168 -1.583054 3 21 252 0.000076 1.000000
3.429043 -4.260609 -0.348878 2 235 252 0.037739 1.000000
-0.072797 1.500479 0.428307 152 175 194 0.009393 1.000000
5.406104 -4.879851 -2.664563 1 6 251 0.001658 1.000000
-2.132904 0.755251 0.431373 19 40 218 0.000012 1.000000
0.265708 -1.808334 0.185540 89 150 204 0.005458 1.000000
1.294553 -3.023297 1.421070 7 11 222 0.001678 1.000000
4.773299 -2.081698 -4.421888 0 246 254 0.000169 1.000000
0.367866 -3.148034 -2.063433 254 1 0 0.001376 1.000000
-0.540050 1.232674 1.558550 166 163 228 0.000008 1.000000
0.000066 -1.575249 0.018206 59 116 185 0.017046 1.000000
0.256295 -1.884093 0.217890 158 171 160 0.167711 1.000000
1.680370 1.126614 2.543736 8 18 218 0.000038 1.000000
-10.593568 -6.133242 -1.296396 2 225 254 0.122691 1.000000
6.231046 -4.327779 -3.585441 9 221 254 0.124962 1.000000
0.657821 -4.285146 -9.087078 254 0 0 0.070472 1.000000
1.049979 0.906256 1.898236 47 85 228 0.000022 1.000000
-2.747684 -1.113225 1.558005 214 223 231 0.000039 1.000000
-0.597783 1.286066 -0.756227 187 203 214 0.000005 1.000000
2.404380 1.019517 1.600542 6 12 244 0.000033 1.000000
3.633500 -1.887688 4.850970 253 254 254 0.000856 1.000000
0.828681 -2.985398 -1.777559 23 46 242 0.000309 1.000000
0.116239 0.852029 -0.019943 244 38 23 0.000014 1.000000
0.645155 0.821648 1.532085 7 15 211 0.000011 1.000000
-1.005053 -2.403937 6.352769 0 247 254 0.001414 1.000000
-0.463039 1.013160 0.317773 243 232 231 0.000006 1.000000
0.203060 -0.012308 -0.310343 196 133 173 0.000023 1.000000
-2.523169 0.166769 -2.021230 72 55 105 0.000017 1.000000
1.160021 -0.642741 -4.129611 5 45 253 0.000125 1.000000
2.340889 -3.250212 1.113239 7 35 251 0.000226 1.000000
4.282307 -4.076852 0.795486 1 41 252 0.000097 1.000000
-0.225298 1.510730 -0.764045 167 156 187 0.000006 1.000000
1.286121 0.904773 -0.510652 110 65 107 0.000008 1.000000
-0.902056 -0.582318 0.638224 145 51 74 0.000011 1.000000
0.350205 1.724723 0.047501 250 253 254 0.950581 1.000000
1.152387 0.914608 -0.737656 59 208 249 0.000015 1.000000
-1.769156 1.084748 3.079445 188 90 74 0.000028 1.000000
0.835126 -0.722365 1.253306 162 132 184 0.000022 1.000000
-3.238876 0.951195 -0.224372 8 14 195 0.000028 1.000000
0.037837 1.360643 -0.214898 116 83 128 0.000005 1.000000
-0.469426 0.885515 -0.174058 136 157 191 0.000004 1.000000
-1.041118 0.956291 1.429512 41 95 194 0.000011 1.000000
0.221408 1.051878 -0.858104 185 148 198 0.000004 1.000000
-0.031925 1.640499 0.941656 23 131 209 0.000009 1.000000
-0.331234 0.913523 1.088798 102 181 228 0.000006 1.000000
0.560754 1.493694 0.123122 162 173 140 0.000006 1.000000
1.889073 -3.497152 1.797075 7 52 238 0.000081 1.000000
1.436512 0.882916 -0.997957 58 21 141 0.000010 1.000000
0.092370 -3.122524 -2.013008 252 4 2 0.007963 1.000000
0.327013 1.740610 -1.079323 76 163 226 0.000111 1.000000
-0.392721 1.597810 -0.683086 73 166 215 0.000019 1.000000
-3.328532 -4.121132 -0.272099 7 247 252 0.001449 1.000000
0.532580 0.092831 0.144164 57 130 223 0.999975 5.175569
-1.334222 1.026781 -1.463512 91 68 133 0.000009 1.000000
1.502678 1.034858 -1.466767 88 109 211 0.000023 1.000000
-0.263126 1.637291 -0.789719 33 150 206 0.000225 1.000000
0.331883 -0.085844 -0.896346 194 204 229 0.000005 1.000000
-1.490827 1.031045 4.203333 2 2 106 0.000057 1.000000
-2.095607 0.925113 0.272712 20 36 161 0.000014 1.000000
-0.386023 1.299507 0.876281 190 156 213 0.000004 1.000000
-1.735635 0.917475 2.457706 12 10 44 0.000027 1.000000
1.107834 -2.467848 0.397356 35 93 222 0.003992 1.000000
0.328952 0.666380 -1.347450 168 160 160 0.000006 1.000000
0.208497 -0.383221 -0.393301 254 128 101 0.999994 5.406800
0.385396 0.771030 -0.650434 78 176 235 0.000005 1.000000
-0.630826 0.894277 1.678735 3 103 254 0.000174 1.000000
-0.164015 -2.004517 0.572970 115 147 194 0.001836 1.000000
6.178587 -4.228354 0.863654 1 239 254 0.171240 1.000000
2.995085 -0.992787 -4.618754 0 241 254 0.000593 1.000000
-1.141148 0.842097 2.145907 11 28 238 0.000045 1.000000
0.985532 0.911612 1.563341 33 103 199 0.000014 1.000000
0.279009 1.487390 -0.500857 87 142 186 0.000007 1.000000
-1.174306 1.001319 -0.199717 142 187 186 0.000004 1.000000
-0.810760 1.007213 0.279739 92 78 134 0.000004 1.000000
-1.536273 -3.700723 7.877308 249 254 254 0.850802 1.000000
-1.107105 0.975615 1.086755 34 41 145 0.000012 1.000000
0.140690 0.969368 1.379379 160 149 223 0.000010 1.000000
-0.245619 -0.262841 4.975875 245 9 5 0.000440 1.000000
0.817488 1.612813 0.083740 159 180 126 0.000018 1.000000
4.922550 0.215630 3.012575 13 12 24 0.000096 1.000000
0.175145 1.254918 0.908671 79 130 209 0.000006 1.000000
0.713599 1.264655 1.777558 122 156 194 0.000010 1.000000
0.181853 1.069392 0.784352 164 177 233 0.000005 1.000000
-0.013643 1.424005 1.749962 54 185 195 0.000024 1.000000
-0.549720 -3.416309 -2.327920 229 21 20 0.003429 1.000000
-0.478643 1.093889 1.561081 188 208 197 0.000010 1.000000
-0.518165 0.705153 -1.797040 34 19 96 0.000013 1.000000
4.368775 0.215524 2.491600 11 16 49 0.000047 1.000000
-2.275157 0.977874 1.672367 239 18 15 0.000025 1.000000
-0.290821 1.680877 -0.842382 167 188 206 0.006021 1.000000
5.733935 -0.408859 0.610117 58 221 240 0.000309 1.000000
-3.533813 -0.966204 -0.627432 95 10 18 0.000047 1.000000
-0.067027 1.095415 0.696173 101 208 237 0.000005 1.000000
1.768169 -3.654763 3.366151 10 155 249 0.001151 1.000000
6.538251 -3.647443 1.269174 252 254 254 0.242135 1.000000
2.400167 0.955128 -3.399432 238 171 129 0.000134 1.000000
0.461923 1.501848 0.046075 172 220 214 0.001046 1.000000
0.387598 -3.773194 -2.930473 236 72 31 0.000100 1.000000
-1.133430 0.842080 1.401496 15 62 236 0.000019 1.000000
5.223967 0.101027 1.442954 7 8 15 0.000028 1.000000
-0.143433 -0.010829 0.183316 54 107 203 0.999989 4.415087
-0.813505 0.174996 -3.839797 12 12 35 0.000081 1.000000
4.675336 -5.096790 -3.975025 0 253 254 0.008160 1.000000
1.176362 -3.382145 -2.124831 30 18 25 0.000156 1.000000
-2.563598 0.162806 -2.061448 82 73 190 0.000028 1.000000
1.517028 -4.453039 -3.541249 252 3 2 0.001494 1.000000
0.014128 -2.523476 1.282065 168 169 193 0.000343 1.000000
1.208569 0.988537 3.267689 2 247 254 0.000139 1.000000
9.122050 -2.596883 0.531490 0 253 254 0.011072 1.000000
-0.082872 0.736658 -0.504057 34 165 240 0.000005 1.000000
0.049545 0.881176 -0.550672 58 207 249 0.000005 1.000000
-2.495327 -0.991985 -3.067563 11 69 229 0.000035 1.000000
1.655028 -0.583474 1.877412 224 119 164 0.001391 1.000000
-1.179476 -2.342709 -5.771698 238 34 19 0.000283 1.000000
-0.921837 -2.540695 -0.846109 86 164 200 0.020260 1.000000
0.563413 1.527762 -0.109696 151 123 181 0.000044 1.000000
2.532013 0.770503 14.328799 0 0 254 0.166732 1.000000
-1.173622 0.101931 -1.653098 97 146 226 0.000010 1.000000
-1.665485 -2.951543 -7.500750 254 0 0 0.025969 1.000000
4.380502 -1.575614 -2.223357 6 154 243 0.000019 1.000000
-0.832675 -0.045262 -1.519505 133 211 233 0.000011 1.000000
3.279040 -1.787170 2.516169 19 73 228 0.000690 1.000000
-0.083270 0.879017 -0.405038 227 246 251 0.000005 1.000000
-3.681336 -1.559790 -0.931625 2 240 252 0.000047 1.000000
0.114249 -1.183864 17.074783 7 1 249 0.149865 1.000000
1.060107 1.017677 1.486239 27 39 184 0.000015 1.000000
4.958641 0.109752 1.423909 2 10 248 0.000035 1.000000
-0.907257 0.989249 0.704535 44 179 246 0.000008 1.000000
-0.132806 -0.887017 -3.937181 13 59 209 0.000029 1.000000
-5.415690 -0.163331 -2.073630 13 18 34 0.000383 1.000000
-0.245633 -1.763552 0.078988 146 182 193 0.013685 1.000000
0.324366 1.546009 -0.439718 157 165 144 0.013747 1.000000
7.910001 -4.711404 -1.555705 233 253 254 0.161041 1.000000
7.103353 -4.060678 0.051962 0 247 254 0.186734 1.000000
-4.822550 -1.745491 2.741647 249 254 254 0.001891 1.000000
0.876960 1.011102 2.619203 15 18 196 0.000019 1.000000
-0.829361 1.134136 -1.241344 170 170 171 0.000007 1.000000
4.227934 -1.871551 -4.006458 0 245 254 0.000351 1.000000
-0.747449 1.133827 4.447009 247 4 3 0.000122 1.000000
0.156828 1.314862 0.735389 5 213 250 0.000009 1.000000
-2.623309 0.969604 0.841780 227 38 31 0.000029 1.000000
-2.550511 -1.612682 -5.519497 0 0 2 0.008147 1.000000
3.748554 -3.897513 1.775759 22 249 254 0.001865 1.000000
0.494381 0.895206 -1.303085 170 194 228 0.000010 1.000000
1.480984 0.899490 0.210931 203 166 161 0.000009 1.000000
-4.455838 -4.486964 -2.393259 3 30 248 0.004301 1.000000
0.594761 -3.018397 -8.451667 254 254 254 0.000284 1.000000
5.910208 -1.930578 5.784336 254 6 251 0.008947 1.000000
6.356279 -0.639047 2.938812 251 75 5 0.000848 1.000000
0.306392 -1.787809 0.028403 105 103 196 0.002026 1.000000
-0.640488 1.587603 -0.149581 172 151 165 0.020012 1.000000
-5.850548 -1.983164 0.761742 4 254 254 0.001294 1.000000
1.119347 -0.990912 -2.662095 146 216 224 0.000101 1.000000
0.410743 1.490584 0.008156 186 239 246 0.015278 1.000000
5.081423 -2.378869 5.094668 0 3 253 0.023377 1.000000
-3.572223 -4.304596 -0.270185 1 8 250 0.002242 1.000000
-1.102950 0.054553 -1.024742 15 108 248 0.000018 1.000000
0.801241 -2.888269 -1.540723 161 87 155 0.001116 1.000000
6.486131 0.050699 1.723348 2 4 98 0.000393 1.000000
5.603000 -4.845507 6.054698 0 0 254 0.157939 1.000000
-0.131215 -0.880120 -3.968312 50 173 217 0.000021 1.000000
0.878654 1.715567 0.367321 180 174 142 0.119545 1.000000
6.909389 -2.267372 -4.132211 0 254 254 0.018384 1.000000
-0.383823 -2.083738 -0.551692 187 158 194 0.007783 1.000000
-0.586604 1.580531 0.571895 185 192 221 0.000006 1.000000
0.948146 1.193296 1.325649 144 129 123 0.000007 1.000000
7.156913 -3.541446 1.627226 63 252 254 0.067231 1.000000
0.081302 1.022730 -1.348384 133 170 162 0.000006 1.000000
6.726601 -4.457889 -1.288224 19 3 253 0.147079 1.000000
-2.253688 0.931527 -1.136562 77 55 124 0.000012 1.000000
1.405344 -2.687884 0.376316 85 106 205 0.005199 1.000000
0.450111 0.977842 0.650332 131 136 216 0.000004 1.000000
6.499243 0.051862 1.728528 2 2 8 0.000131 1.000000
-4.199630 -1.649906 2.238222 38 247 250 0.000301 1.000000
1.006224 -0.993452 3.951810 248 250 236 0.000033 1.000000
-3.672188 -1.433031 2.041615 13 252 252 0.000044 1.000000
-0.376628 1.542955 -0.609930 46 102 197 0.000006 1.000000
1.084419 -2.648927 0.916264 127 215 225 0.002666 1.000000
2.321493 -3.620660 1.428290 1 233 253 0.000880 1.000000
-0.308144 0.982444 3.484716 1 5 250 0.000052 1.000000
-1.299242 -2.260880 -5.705837 20 57 237 0.000082 1.000000
0.563737 -2.096298 0.420450 183 29 50 0.003304 1.000000
-2.071736 -1.297714 -2.741879 3 206 253 0.000036 1.000000
1.689766 -2.874674 -0.307635 11 87 242 0.002565 1.000000
-2.207381 -1.453760 2.718516 49 188 236 0.000333 1.000000
1.590288 -3.549416 -2.084841 25 131 238 0.000322 1.000000
4.428604 1.443325 5.612568 242 21 10 0.000133 1.000000
1.187611 -2.457036 -1.273015 228 253 254 0.009429 1.000000
1.375874 1.314502 0.960411 95 178 201 0.000011 1.000000
1.886339 1.099228 3.656566 11 8 189 0.000032 1.000000
2.518808 1.040582 2.136751 25 21 96 0.000029 1.000000
-1.430995 0.788776 -1.182543 64 47 94 0.000013 1.000000
0.128435 -0.422817 -0.066859 33 116 220 0.999915 5.469556
-3.188418 1.028248 2.396114 26 225 239 0.000051 1.000000
-2.035787 0.146787 -3.242694 16 25 223 0.000025 1.000000
1.903164 -3.026913 0.038204 178 154 185 0.000842 1.000000
0.993284 1.751052 0.418512 110 160 191 0.003332 1.000000
0.369236 1.165901 -0.715849 38 189 238 0.000006 1.000000
0.273996 1.577428 0.575201 145 113 118 0.009591 1.000000
-1.156666 -2.497764 -5.642345 253 0 0 0.052171 1.000000
-0.391361 0.958867 1.795568 95 169 187 0.000009 1.000000
-0.152353 1.130494 -0.566959 34 105 248 0.000009 1.000000
-0.339333 1.486954 0.337998 207 198 225 0.000056 1.000000
0.543227 1.527016 0.155569 123 239 250 0.000697 1.000000
0.983074 0.978972 2.708798 11 47 246 0.000035 1.000000
3.631761 -2.738572 2.643177 201 254 254 0.171971 1.000000
6.765488 -3.840854 -0.326789 252 254 254 0.312396 1.000000
-1.266363 1.675626 -0.900554 139 212 189 0.000009 1.000000
-2.025448 0.912160 -1.826228 11 62 218 0.000022 1.000000
1.603815 -2.946199 -0.780144 182 26 55 0.013033 1.000000
0.190269 0.930303 3.811479 115 10 18 0.000149 1.000000
5.126614 -4.323315 -5.498076 7 204 254 0.131160 1.000000
-1.269569 0.994852 2.017868 13 24 209 0.000026 1.000000
-0.153446 1.071932 2.999743 95 181 187 0.000017 1.000000
-1.626545 0.805677 -2.212221 17 13 100 0.000015 1.000000
0.001078 1.318825 2.618350 98 46 115 0.000011 1.000000
-0.099085 -0.817239 -3.799514 3 84 251 0.000328 1.000000
0.510958 0.883662 -0.507060 14 244 248 0.000008 1.000000
-1.189801 -0.894852 -3.346549 12 43 220 0.000070 1.000000
-3.554523 -1.591982 -2.440218 15 199 237 0.000063 1.000000
0.064971 1.344725 0.152463 151 211 180 0.000006 1.000000
4.760406 -1.150623 -4.102433 1 248 253 0.001886 1.000000
6.732395 -4.236672 1.247714 239 254 254 0.188976 1.000000
-0.503908 0.806294 -1.644900 177 127 78 0.000008 1.000000
-0.074911 -1.292790 3.488528 88 66 132 0.000078 1.000000
-1.364177 0.957581 -0.352628 142 152 221 0.000009 1.000000
3.868000 -4.478806 -8.032019 254 254 254 0.627755 1.000000
1.091143 1.016527 1.111585 199 144 167 0.000007 1.000000
-4.154169 0.979004 0.661586 252 254 254 0.000182 1.000000
0.626920 1.620281 -0.259731 164 142 194 0.148200 1.000000
-2.779633 -0.649191 -1.748038 8 232 248 0.000079 1.000000
-3.108891 0.916885 0.815044 23 67 183 0.000019 1.000000
1.410227 -2.736279 0.664311 66 207 243 0.001729 1.000000
-0.837063 -3.173448 -1.906175 144 177 227 0.012032 1.000000
0.181141 0.961897 -0.648301 159 185 198 0.000005 1.000000
3.459569 -0.984687 -3.059287 1 177 250 0.000074 1.000000
0.160596 1.246003 3.360849 12 13 245 0.000147 1.000000
0.940435 1.020452 1.819979 113 149 221 0.000020 1.000000
0.087398 1.259184 1.798540 35 85 206 0.000015 1.000000
-0.766941 1.027419 0.055520 143 213 247 0.000005 1.000000
1.137392 -2.516773 0.478492 81 96 205 0.005681 1.000000
3.427533 -0.979053 -3.020709 4 36 242 0.000125 1.000000
-0.459777 0.842077 0.262525 230 239 236 0.000007 1.000000
-1.192280 0.980015 -2.058214 247 251 250 0.000222 1.000000
3.736410 -4.529651 -0.931226 11 161 241 0.001089 1.000000
-0.278343 1.205532 -0.989468 88 151 179 0.000004 1.000000
6.183196 -4.028734 -3.050432 7 201 254 0.119648 1.000000
-2.686986 0.883536 0.991236 12 20 148 0.000020 1.000000
6.224441 -0.453902 0.794491 13 184 227 0.000147 1.000000
-1.422675 0.703543 -1.056769 35 159 233 0.000013 1.000000
0.212271 1.396072 0.132758 162 175 147 0.000019 1.000000
1.399808 -2.651132 0.340144 25 193 245 0.001081 1.000000
0.261731 -0.087006 0.319513 51 132 215 0.999994 5.051954
-1.757991 -3.809181 -2.297980 7 2 3 0.008490 1.000000
3.324327 -3.786184 1.850383 1 209 253 0.000087 1.000000
-0.287882 -3.118285 -2.025722 42 20 97 0.001033 1.000000
1.889016 -3.534511 -1.765900 1 199 253 0.002141 1.000000
0.832678 1.005545 2.528132 9 7 77 0.000021 1.000000
-1.719670 1.011328 0.000438 59 97 158 0.000009 1.000000
-0.437116 1.238248 0.177575 181 223 245 0.000005 1.000000
-1.348234 1.079011 0.974009 122 175 215 0.000010 1.000000
1.130159 -2.536743 0.541234 179 82 132 0.015747 1.000000
-2.691080 -2.255662 5.038999 254 0 0 0.001211 1.000000
-0.268964 0.727724 -1.693871 243 250 253 0.000019 1.000000
-1.179610 -3.762017 -5.779319 1 0 0 0.002871 1.000000
3.683313 1.085570 -0.791536 5 6 14 0.000042 1.000000
0.534813 1.026815 1.272042 36 58 198 0.000014 1.000000
-3.465838 0.190936 -1.397175 6 160 244 0.000040 1.000000
-1.215497 -0.262349 0.779727 115 200 249 0.000622 1.000000
-6.927782 -2.232119 -1.731170 0 253 254 0.000882 1.000000
1.040624 0.960124 -0.911603 91 140 143 0.000007 1.000000
-1.366595 0.937059 1.000356 121 95 169 0.000009 1.000000
-1.720778 -2.911354 -0.055559 13 232 248 0.013449 1.000000
-0.278360 1.085707 0.700203 177 194 206 0.000005 1.000000
0.934416 1.147875 -1.509382 138 93 150 0.000008 1.000000
-1.294635 -0.937999 -3.542338 32 130 208 0.000041 1.000000
-1.428815 -3.048845 -1.317042 11 12 97 0.002789 1.000000
-0.069007 -0.054479 -5.139181 245 9 7 0.000102 1.000000
1.035979 1.116840 -0.988544 167 114 186 0.000007 1.000000
-0.608561 0.135398 -1.127909 80 65 227 0.000021 1.000000
-1.895385 -3.635397 -8.577991 254 0 0 0.030138 1.000000
-2.979129 -1.160029 -3.712208 3 12 245 0.000198 1.000000
1.539779 1.224259 -0.096654 173 230 251 0.000015 1.000000
-1.240140 1.148214 1.200754 173 193 111 0.000019 1.000000
0.457882 0.930085 1.348574 80 124 188 0.000008 1.000000
-4.753879 0.155873 -0.058130 74 65 165 0.000177 1.000000
-1.200651 1.213831 2.278586 42 51 171 0.000030 1.000000
-1.059031 -0.124954 -1.765954 99 201 234 0.000032 1.000000
-0.500266 0.960911 1.664758 64 132 216 0.000012 1.000000
-0.756574 0.234490 -3.381340 4 28 250 0.000187 1.000000
6.500615 -3.595296 -1.548680 165 249 254 0.135373 1.000000
-1.930543 0.863803 1.020439 18 32 238 0.000034 1.000000
-2.854549 -2.273752 -3.747612 38 2 4 0.054067 1.000000
-2.158186 1.022739 1.625022 31 76 177 0.000019 1.000000
1.522106 -3.532114 -2.131880 88 112 113 0.000095 1.000000
-2.139519 0.179571 -1.761436 145 145 204 0.000014 1.000000
0.599984 -2.318454 -0.797614 106 205 239 0.002212 1.000000
1.093863 0.986665 -3.585723 1 73 254 0.000107 1.000000
0.387485 1.351115 -0.789517 107 95 144 0.000005 1.000000
-0.641481 0.852097 -0.374127 212 193 164 0.000007 1.000000
1.161195 -3.136152 -1.697584 229 240 243 0.002065 1.000000
0.931762 1.047143 4.156623 13 62 243 0.000033 1.000000
0.021992 1.244853 1.254216 72 139 241 0.000011 1.000000
5.885568 -1.570154 -5.173448 0 254 254 0.031596 1.000000
-1.019890 0.957488 0.247910 112 183 191 0.000005 1.000000
2.401843 -3.033648 -1.139579 1 224 254 0.000352 1.000000
4.925692 -3.687299 3.562061 0 0 254 0.148715 1.000000
-1.062141 -1.203375 -3.117868 7 109 234 0.000014 1.000000
1.819418 -2.996408 1.862619 2 233 251 0.000044 1.000000
-0.996934 0.978314 -0.006333 42 103 199 0.000005 1.000000
1.974626 1.091577 2.780518 4 10 225 0.000035 1.000000
-6.360709 -2.136754 0.826779 2 254 254 0.001397 1.000000
-8.947145 -3.608063 -2.071913 0 4 254 0.045041 1.000000
-3.011241 -0.616713 -0.544804 13 24 237 0.000127 1.000000
0.919687 1.026391 -2.676698 140 119 156 0.000014 1.000000
-0.669200 -3.152584 -7.452664 253 1 0 0.012721 1.000000
-0.129678 0.854517 -0.935573 160 172 199 0.000006 1.000000
-0.032282 -1.033440 -2.989642 140 184 175 0.000025 1.000000
-1.145282 -0.487241 1.860507 233 139 116 0.000058 1.000000
-1.386304 1.237594 -0.759998 57 207 196 0.000010 1.000000
2.406776 -2.635383 -3.500422 1 215 254 0.104109 1.000000
1.341732 -2.584218 0.117205 13 134 247 0.002362 1.000000
-1.080781 -4.753780 -4.082217 249 7 3 0.000183 1.000000
-4.118996 -3.249217 -2.002139 254 254 254 0.120975 1.000000
-3.771896 0.173164 -1.489743 10 206 247 0.000188 1.000000
-0.114851 2.152108 -2.013578 254 254 254 0.958144 1.000000
-3.982887 -2.225689 2.799303 10 254 254 0.000066 1.000000
0.815486 1.100881 0.297045 139 117 151 0.000004 1.000000
6.145514 -4.084235 3.062886 0 210 254 0.145909 1.000000
4.753716 -4.680616 -2.277174 4 5 245 0.001217 1.000000
-2.671962 0.222753 -1.073049 48 128 211 0.000024 1.000000
2.656933 -4.179731 2.142497 2 15 251 0.001735 1.000000
2.572868 1.001719 -1.685043 4 26 237 0.000023 1.000000
6.900165 -2.113424 0.580618 0 241 254 0.001303 1.000000
-4.070426 0.166517 -1.603989 23 40 66 0.000145 1.000000
-0.424024 1.555621 0.666122 168 171 229 0.000007 1.000000
1.837996 -0.780060 5.864272 242 6 6 0.000123 1.000000
0.122680 1.107723 -0.271011 141 225 248 0.000004 1.000000
0.165441 0.999729 -0.390290 150 183 211 0.000005 1.000000
1.642458 0.828440 3.497117 2 2 254 0.006350 1.000000
2.504559 -3.518004 -0.613394 5 14 232 0.001201 1.000000
7.008389 -3.979698 -1.786693 0 241 254 0.225328 1.000000
2.912399 1.155544 2.890947 43 65 162 0.000032 1.000000
-1.760426 0.855098 2.280829 72 35 75 0.000019 1.000000
-3.277706 -0.735075 3.577978 231 85 66 0.000652 1.000000
0.263362 -3.162412 -2.051898 247 7 5 0.015073 1.000000
-1.919106 0.160148 -3.051857 19 26 173 0.000045 1.000000
-0.377778 1.692871 -0.849226 129 181 231 0.003819 1.000000
1.692532 -0.307650 1.333508 93 202 233 0.061896 1.000000
2.616122 -3.758951 -1.323075 6 60 246 0.000387 1.000000
-3.695020 0.936990 -1.863162 8 9 22 0.000073 1.000000
-1.021303 1.143090 1.361989 192 175 174 0.000020 1.000000
-2.265224 0.792202 -0.378036 25 73 243 0.000024 1.000000
6.896024 -3.792157 -0.079070 198 250 254 0.226020 1.000000
-4.013309 -3.737622 6.825485 254 254 254 0.845148 1.000000
5.515595 -1.988116 2.361151 1 246 253 0.000049 1.000000
0.635386 0.970652 -0.596197 89 159 203 0.000006 1.000000
-0.932052 -0.605133 0.686823 133 203 238 0.000010 1.000000
-0.474659 1.026759 -0.106037 41 154 242 0.000005 1.000000
-0.136437 -0.909899 -4.010617 16 40 199 0.000043 1.000000
-4.373450 0.956900 -0.599742 3 4 57 0.000097 1.000000
0.806314 1.135647 3.481817 9 25 224 0.000062 1.000000
0.947136 0.917117 1.824625 10 33 245 0.000027 1.000000
