ply
format ascii 1.0
element vertex 128
property float x
property float y
property float z
property uchar red
property uchar green
property uchar blue
property float opacity
property float scale
end_header
1.745852 -0.554527 -0.689935 15 169 234 0.103594 1.000000
-0.485137 0.212946 -1.428653 88 162 159 0.015704 1.000000
1.908549 -0.554135 -0.090344 18 158 235 0.112359 1.000000
0.018510 0.089608 -0.038688 152 200 234 0.797397 1.000000
1.566258 -0.775591 -0.083751 123 87 134 0.060083 1.000000
-1.018658 0.411251 1.226846 134 168 185 0.031623 1.000000
-0.036134 0.060527 -0.120093 162 223 248 0.977780 1.268184
0.193104 0.454978 0.801876 151 212 237 0.042888 1.000000
-1.118956 -0.197268 -0.648337 127 162 224 0.020901 1.000000
0.094291 -0.863487 1.083874 168 220 229 0.024726 1.000000
-0.106119 -0.909465 -0.471759 99 220 237 0.051380 1.000000
1.566453 -0.233801 0.344409 53 122 215 0.058234 1.000000
-0.073159 0.847668 0.763644 107 194 226 0.009173 1.000000
-0.349588 -0.606088 0.001790 198 254 254 0.660933 2.256480
0.058462 0.671452 -0.167903 233 244 249 0.010200 1.000000
0.420177 -0.743688 0.119833 14 205 250 0.173493 1.000000
-0.408309 -0.033624 0.870347 82 109 174 0.009570 1.000000
0.039275 0.895694 -0.155107 142 212 220 0.003900 1.000000
-0.227495 0.974777 -0.124152 219 235 248 0.017261 1.000000
1.819219 -0.134595 0.731980 67 118 220 0.111008 1.000000
-0.496640 0.773540 -0.529249 154 183 174 0.009070 1.000000
1.302178 0.202924 -0.716052 84 169 228 0.090973 1.000000
0.444734 -0.618966 0.403650 29 225 247 0.367109 1.000000
0.511170 0.217726 -0.031233 56 115 209 0.994950 4.069681
0.218465 0.672001 0.155222 141 169 182 0.002058 1.000000
0.114781 -0.178186 0.088733 92 122 228 0.960711 1.000000
-0.243223 0.639028 -0.456750 87 149 209 0.007697 1.000000
-0.146318 -0.789806 0.446430 249 251 251 0.337146 1.000000
-1.280445 -0.174430 0.177859 53 178 199 0.018585 1.000000
-0.096920 -0.039602 -0.332009 20 131 247 0.994891 4.838769
0.708072 -1.224135 0.022801 139 188 242 0.080329 1.000000
-0.143038 -0.056920 0.868431 196 186 204 0.012914 1.000000
-0.981304 0.646889 0.198299 130 156 167 0.009929 1.000000
0.025115 0.094374 -0.020841 214 249 253 0.977881 1.817747
0.226340 0.278904 0.016849 82 154 238 0.997407 4.841710
0.143139 0.109004 0.097725 138 212 248 0.873662 1.000000
0.694658 0.638698 -0.685875 118 171 221 0.007063 1.000000
-0.383141 -1.054412 -0.272339 223 242 243 0.027471 1.000000
1.231832 0.314046 -1.223228 114 153 183 0.016329 1.000000
0.146806 -0.175686 0.371065 54 100 191 0.998156 5.119439
-0.470086 0.186009 -0.299609 66 89 185 0.016223 1.000000
-0.896477 0.116896 0.180523 164 226 235 0.021775 1.000000
0.969786 -1.187736 0.288078 55 157 215 0.097035 1.000000
0.189061 -0.202253 -0.306597 248 46 17 0.996818 6.261678
0.602429 0.670140 -0.397144 161 171 180 0.005327 1.000000
1.639368 -0.286111 0.721711 60 166 200 0.028886 1.000000
-0.599438 -0.358410 -0.739344 69 95 170 0.038254 1.000000
0.323401 -0.357803 0.151135 95 141 221 0.883369 1.000000
-0.454891 0.648967 0.342503 141 191 225 0.008601 1.000000
0.367251 0.669389 0.008275 101 184 187 0.004279 1.000000
0.184092 0.098676 -0.213048 47 124 233 0.966137 1.000000
-0.144404 -0.789566 0.315883 231 249 244 0.276394 1.000000
-1.494340 -0.464734 -0.735015 56 157 217 0.035964 1.000000
0.129018 -0.556229 -0.175377 213 248 250 0.279631 1.000000
-0.206322 0.153805 -0.676550 114 177 225 0.012884 1.000000
0.352455 0.674476 -0.321330 118 212 238 0.008100 1.000000
-0.960805 0.233542 1.896750 70 93 204 0.053154 1.000000
1.126278 -1.456704 0.231680 122 175 220 0.074659 1.000000
1.225883 0.561778 -1.549606 39 106 236 0.060558 1.000000
0.056014 0.111755 -0.064999 252 228 212 0.583729 1.000000
0.899222 0.269324 1.334622 73 157 224 0.079675 1.000000
-0.023123 0.144895 -0.021019 207 239 249 0.945947 1.000000
0.581879 -0.668337 0.086575 58 168 242 0.170741 1.000000
0.515995 0.744298 -0.132695 216 230 240 0.002039 1.000000
0.712708 0.542161 2.390829 40 174 233 0.119671 1.000000
-0.352523 0.056789 0.783405 28 79 223 0.043401 1.000000
1.781924 -1.731041 0.148503 105 175 194 0.121497 1.000000
0.361607 -0.044276 -0.061733 192 234 247 0.402366 1.000000
1.402506 -1.363471 -0.099494 65 133 192 0.106634 1.000000
0.471388 -0.040856 -0.074972 87 165 221 0.900419 1.000000
-0.515430 -0.591611 0.023915 230 247 244 0.206190 1.000000
1.718864 -0.297770 1.285134 87 118 187 0.101641 1.000000
0.478473 -1.316821 -1.126310 177 116 167 0.083022 1.000000
0.117961 -0.154425 0.238279 137 163 207 0.310304 1.000000
-0.471430 0.582175 0.733163 169 207 214 0.015269 1.000000
0.748614 -0.719141 0.137942 31 206 239 0.107058 1.000000
0.491745 -0.016727 0.235377 50 126 221 0.998365 5.672925
0.653519 -0.084801 0.693964 37 90 230 0.041319 1.000000
0.773824 0.676071 -0.319648 132 198 237 0.011338 1.000000
0.048558 0.222665 -0.054485 176 218 247 0.975823 1.000000
0.337347 0.853880 -0.328710 71 144 185 0.004147 1.000000
0.235067 -0.355430 0.059570 58 138 231 0.994073 8.963538
-0.530993 0.409924 0.699249 100 191 230 0.037024 1.000000
-0.027501 0.167255 -0.040685 104 182 254 0.999341 5.723633
-0.169239 -0.024478 -0.773429 220 244 244 0.019046 1.000000
0.440059 -0.049602 -0.008994 107 147 196 0.921171 1.000000
-0.468945 -0.447754 -1.520694 46 142 208 0.032685 1.000000
0.174652 -0.080534 0.202915 96 101 148 0.964589 1.000000
-0.942876 -0.783071 0.956811 103 130 176 0.016339 1.000000
0.744072 0.697861 0.617446 148 151 185 0.002086 1.000000
-1.210584 0.148142 -1.476947 63 87 146 0.021125 1.000000
0.811890 -0.471227 -0.001899 44 160 252 0.126649 1.000000
1.237837 0.354158 1.430695 45 51 196 0.045341 1.000000
2.116612 -0.808725 0.199893 37 118 204 0.057173 1.000000
-0.069204 -0.838947 -0.322430 207 151 224 0.123901 1.000000
-0.483197 -0.886319 -0.271261 211 251 244 0.024776 1.000000
0.223466 -0.432178 -0.595152 253 105 30 0.270238 1.000000
0.803213 -1.200609 0.360949 35 208 238 0.083604 1.000000
0.105840 0.438506 1.047594 49 78 165 0.039044 1.000000
-0.810812 -0.467138 1.125569 175 173 189 0.014548 1.000000
-0.020380 0.638267 0.339433 77 124 199 0.003709 1.000000
-0.035595 0.088031 0.333280 60 138 236 0.993793 3.512633
-0.606231 -0.994616 -0.667387 124 225 223 0.047253 1.000000
0.905159 -0.899011 0.604264 4 234 252 0.088373 1.000000
0.204526 -0.921869 -0.315951 147 229 243 0.117434 1.000000
-0.377895 0.860393 0.561047 180 224 246 0.013245 1.000000
1.128132 -0.284675 0.442916 55 84 210 0.032292 1.000000
-0.757132 0.319312 -0.653781 157 205 227 0.004892 1.000000
0.239089 -0.063052 -0.089484 134 142 169 0.865840 1.000000
0.242732 0.073448 0.052475 112 196 229 0.556174 1.000000
0.572356 -0.860301 1.211290 132 152 172 0.023981 1.000000
0.541996 -0.687627 0.488080 42 148 213 0.231154 1.000000
-0.200192 -0.020362 0.094984 62 126 213 0.997068 3.813771
1.396842 -0.832642 -1.353595 47 120 235 0.073565 1.000000
1.171813 -0.246495 0.466865 193 225 239 0.057886 1.000000
1.096327 0.353550 1.172064 57 71 213 0.023663 1.000000
0.170365 -0.381608 -0.447625 254 135 100 0.991606 4.611997
1.482493 -0.570786 -0.494752 33 112 216 0.101586 1.000000
0.172663 0.172449 0.223122 138 210 241 0.823715 1.000000
-0.275568 -0.387658 0.772514 218 65 50 0.036055 1.000000
1.326330 1.166553 -0.077330 177 179 140 0.017640 1.000000
0.692368 -1.129272 -0.670378 243 152 87 0.097776 1.000000
-0.007945 0.808248 -0.038364 131 106 163 0.010946 1.000000
0.115906 1.620436 0.788382 145 126 173 0.109870 1.000000
0.644579 -0.037868 -0.014695 95 147 209 0.920429 1.000000
-0.390653 -0.271551 -0.623203 248 42 23 0.049407 1.000000
0.643517 1.014733 -0.232411 144 198 226 0.353953 1.000000
0.543536 0.042363 -0.166313 12 126 248 0.998167 6.169987
