ply
format ascii 1.0
element vertex 512
property float x
property float y
property float z
property uchar red
property uchar green
property uchar blue
property float opacity
property float scale
end_header
-1.466372 0.835797 1.530278 16 54 230 0.001946 1.000000
-1.830277 -0.496324 -0.743638 27 144 237 0.004147 1.000000
-2.657073 -0.283206 -0.498373 8 193 246 0.004186 1.000000
1.845053 -2.017591 -3.510966 223 242 246 0.085138 1.000000
-0.168324 0.722519 0.571101 94 190 234 0.000149 1.000000
-0.482347 0.707888 0.529910 142 141 198 0.000070 1.000000
0.795449 -2.209253 1.210291 217 217 212 0.000485 1.000000
0.861561 0.831086 -0.212544 134 137 172 0.000063 1.000000
-3.554455 0.263546 -1.376519 13 12 32 0.002278 1.000000
3.068401 -2.648926 -2.632053 45 41 227 0.174925 1.000000
-0.813721 0.891303 -1.301217 120 132 174 0.000054 1.000000
-0.845770 -1.737169 5.079439 253 29 3 0.013855 1.000000
-0.546560 -2.132537 -2.915663 202 240 249 0.135596 1.000000
-2.547209 -0.665137 -0.019558 222 78 66 0.008805 1.000000
-0.792618 0.880910 1.358144 123 165 204 0.000099 1.000000
4.085474 -0.856512 1.409735 0 206 253 0.198259 1.000000
3.982114 -2.658409 1.272581 238 246 253 0.245614 1.000000
0.520038 1.512978 0.219169 147 198 200 0.000524 1.000000
-0.316235 0.936969 -0.317122 153 178 148 0.000028 1.000000
-0.030628 0.641984 0.419331 228 243 252 0.000096 1.000000
-0.553665 1.034828 5.200343 11 90 242 0.006488 1.000000
-0.054346 0.671473 -0.324042 129 177 209 0.000056 1.000000
0.450062 0.054735 -1.370129 66 47 119 0.001124 1.000000
-2.407433 0.245306 -1.020096 46 71 183 0.000306 1.000000
-3.224118 0.284384 -1.256443 4 5 55 0.003142 1.000000
-0.110010 0.045578 -0.092877 189 236 249 0.996956 1.000000
-1.640676 -0.331649 -2.104649 29 207 237 0.000493 1.000000
0.128994 -0.431140 -0.007977 42 119 219 0.998898 6.331261
-1.635352 0.739038 0.603056 48 105 221 0.000351 1.000000
-0.530053 -3.138224 -2.808084 249 5 5 0.003823 1.000000
-0.066327 -1.664781 -1.965729 232 238 250 0.100320 1.000000
0.163355 0.806778 0.858821 96 120 213 0.000038 1.000000
-0.098135 0.686990 0.134677 60 172 236 0.000244 1.000000
0.000746 0.146391 0.902072 146 228 253 0.002645 1.000000
0.715641 0.779673 0.511889 222 145 98 0.000135 1.000000
-0.306226 -0.574515 -0.279260 232 250 253 0.270313 1.000000
-1.184283 -0.394509 0.543895 141 147 121 0.000174 1.000000
1.944335 0.320604 3.901196 3 4 142 0.023178 1.000000
-2.033507 -1.400482 2.289842 125 252 253 0.011250 1.000000
0.722543 1.667206 0.492731 170 226 240 0.064013 1.000000
-0.154709 0.726061 -0.855963 158 221 245 0.000066 1.000000
-0.076601 0.714794 0.751776 155 188 215 0.000048 1.000000
-0.373553 0.922973 0.640651 62 144 208 0.000109 1.000000
0.534333 1.535689 -0.335714 163 103 133 0.000576 1.000000
0.021516 -0.406080 -1.508670 11 157 243 0.003588 1.000000
-0.068561 1.600375 0.796177 48 102 147 0.000206 1.000000
-2.066488 0.115960 -1.293334 35 38 163 0.000846 1.000000
3.638207 -2.515436 -2.454446 44 17 200 0.127458 1.000000
-1.576527 0.808779 0.982174 111 125 210 0.000297 1.000000
0.042294 0.049505 0.178668 68 148 234 0.999639 3.913862
0.999265 0.908540 -1.617674 110 174 205 0.000090 1.000000
-0.417910 0.690910 1.265012 22 42 222 0.000436 1.000000
-3.681451 -2.427645 0.037713 18 246 250 0.079656 1.000000
3.340629 -1.796214 -1.140862 3 22 249 0.103344 1.000000
-1.642960 0.038637 -1.114951 79 52 161 0.000177 1.000000
-0.599007 0.066225 -0.790462 69 222 239 0.000361 1.000000
-0.272005 0.850767 0.094354 70 99 166 0.000204 1.000000
3.917922 -3.183187 2.445800 231 249 253 0.231828 1.000000
0.014725 0.934704 2.754657 14 92 238 0.002614 1.000000
0.736117 -2.202236 0.659450 14 246 251 0.000837 1.000000
-2.327930 0.068975 -1.493194 82 153 217 0.001152 1.000000
-1.293118 -1.369156 -1.765220 185 8 10 0.002180 1.000000
0.744923 -1.359293 -4.514616 248 11 5 0.021206 1.000000
1.856724 -1.872817 2.783394 237 252 253 0.060292 1.000000
0.523729 0.846014 0.690459 129 195 234 0.000182 1.000000
-2.002836 -2.399253 -3.100984 20 2 7 0.019464 1.000000
6.162534 -3.934937 1.490542 0 251 254 0.150750 1.000000
-0.863975 -1.981085 -4.195034 253 1 0 0.022350 1.000000
-0.877432 -0.809331 0.830864 30 206 250 0.006192 1.000000
0.442601 1.178490 -0.360544 48 103 226 0.000087 1.000000
-0.023318 0.120538 -1.116346 98 149 247 0.000680 1.000000
-3.365359 -2.417816 -1.166653 204 214 244 0.159073 1.000000
-0.861671 0.694438 -0.167229 199 143 144 0.000047 1.000000
-0.489887 0.808215 -0.537562 137 206 239 0.000121 1.000000
1.122107 -0.348777 -0.489172 68 221 253 0.013163 1.000000
2.128430 1.022622 -2.609645 13 146 235 0.000709 1.000000
2.690001 -0.573370 -0.702672 7 238 253 0.025562 1.000000
3.257932 -2.564270 -2.498961 4 47 246 0.156623 1.000000
0.159242 0.745779 0.460577 150 194 202 0.000058 1.000000
0.095669 1.374461 0.034225 139 226 244 0.087516 1.000000
-2.836035 -1.014293 0.047554 6 241 249 0.001995 1.000000
4.544632 -1.479362 -0.533756 0 128 254 0.118044 1.000000
0.663132 0.726629 0.611604 140 186 195 0.000086 1.000000
-1.037430 1.190460 -0.836556 142 171 198 0.000070 1.000000
0.541922 1.017888 1.088490 125 204 222 0.000079 1.000000
-3.377581 -2.757755 -2.568443 249 248 250 0.228630 1.000000
0.014055 0.752849 -0.552606 130 127 165 0.000146 1.000000
-0.479177 0.909373 -0.556274 194 229 244 0.000106 1.000000
-2.386884 -0.317176 -0.969911 29 188 221 0.004816 1.000000
-0.514393 1.242074 -0.521030 162 183 199 0.000058 1.000000
-1.065252 0.286185 2.384234 237 34 19 0.001260 1.000000
3.132853 -0.679294 -0.902816 1 242 253 0.071260 1.000000
-0.214376 -2.634130 -1.907907 6 105 243 0.034863 1.000000
-0.026135 0.759744 1.724669 20 96 223 0.000629 1.000000
0.294450 0.816611 -0.560017 184 188 216 0.000046 1.000000
3.991562 -1.058018 -2.031207 0 250 254 0.009357 1.000000
4.114847 -1.423659 -0.479856 4 25 244 0.024658 1.000000
0.635104 0.717887 -1.095728 23 24 198 0.000285 1.000000
-0.014634 0.781907 0.191423 156 155 201 0.000048 1.000000
0.240257 0.832076 0.476713 147 132 202 0.000045 1.000000
-0.785883 -0.556937 -1.908366 14 34 220 0.000833 1.000000
-0.051905 0.717710 1.752024 102 151 249 0.001656 1.000000
-4.016203 -2.747973 1.438807 250 251 247 0.047955 1.000000
2.518269 -0.741128 -1.443225 1 243 253 0.057320 1.000000
-3.190292 -1.375508 0.111490 28 223 236 0.004743 1.000000
-3.310343 -0.408519 0.572156 98 109 174 0.000266 1.000000
0.903307 0.800587 -1.949086 26 92 234 0.000650 1.000000
-1.105458 -0.854434 -3.091708 51 111 168 0.000307 1.000000
1.934371 -2.707381 -1.018977 3 12 244 0.001452 1.000000
-2.723902 0.884900 0.909063 12 31 228 0.001114 1.000000
3.719681 -0.935697 1.525898 8 215 246 0.001399 1.000000
-0.155446 -2.229955 -0.921911 192 236 239 0.007170 1.000000
0.026293 0.330411 -0.952697 15 97 240 0.001167 1.000000
-0.483815 0.955245 0.296321 121 179 174 0.000023 1.000000
0.467100 0.677814 -0.526216 197 236 245 0.000322 1.000000
1.776641 0.841863 2.387243 14 232 252 0.006264 1.000000
5.557875 -1.195235 -1.641753 0 237 254 0.200955 1.000000
-0.081345 -1.599762 -0.008489 109 70 153 0.006936 1.000000
4.547520 -1.634483 -1.286392 0 20 251 0.088313 1.000000
6.194602 -2.084682 -0.752241 0 249 254 0.059601 1.000000
1.019987 -2.088620 -3.554555 251 2 1 0.140254 1.000000
-2.851400 0.868567 1.739679 6 12 211 0.004298 1.000000
-1.439904 0.319139 -1.260658 135 157 211 0.000076 1.000000
4.873682 -1.499515 1.178231 0 58 254 0.097383 1.000000
0.425435 0.038811 0.198657 40 114 223 0.999920 7.768871
5.114920 -0.147369 0.437229 2 59 250 0.014938 1.000000
0.143696 0.766981 -0.495601 122 128 167 0.000028 1.000000
-0.261210 0.937810 0.277070 229 242 243 0.000152 1.000000
0.166442 -0.113024 -1.010763 142 205 236 0.023777 1.000000
-0.068154 -1.633370 0.059022 119 192 179 0.040782 1.000000
-2.469680 0.238644 -1.035653 99 101 154 0.000118 1.000000
-1.839643 0.844513 1.348285 45 73 201 0.001214 1.000000
-0.690557 -0.454723 -0.765026 138 172 241 0.004231 1.000000
-1.451706 -0.163608 -1.135487 245 60 37 0.003861 1.000000
-0.436765 0.402304 1.185361 142 234 250 0.001464 1.000000
-2.330843 -0.943345 -2.944266 5 230 236 0.000652 1.000000
5.422036 -1.393953 -0.290016 0 194 254 0.158624 1.000000
0.956045 -2.062624 0.311544 190 248 247 0.000882 1.000000
-0.564853 -0.741974 0.108270 64 243 247 0.000413 1.000000
-0.619527 -0.296127 -2.448282 39 61 155 0.001765 1.000000
4.062550 -3.055617 2.923950 116 240 253 0.203952 1.000000
0.358130 0.857719 1.311015 191 130 131 0.000122 1.000000
0.145781 0.799441 0.745542 138 203 222 0.000063 1.000000
-2.053904 -0.847741 -2.622860 5 22 247 0.004541 1.000000
0.535993 1.148221 -0.565775 151 125 166 0.000031 1.000000
-1.522857 -0.580137 -1.524851 40 144 203 0.000304 1.000000
2.154948 0.540332 4.912881 2 4 234 0.048133 1.000000
-0.243387 -1.729641 -0.046312 138 101 160 0.013693 1.000000
-4.000414 -0.913664 -1.070830 11 133 234 0.003550 1.000000
0.066107 0.887808 1.350489 44 129 206 0.000195 1.000000
-0.814387 -1.485773 -3.520268 187 67 78 0.001683 1.000000
-2.494814 0.910696 0.282983 70 81 124 0.000137 1.000000
4.248630 -1.868494 -1.422935 2 18 254 0.184565 1.000000
2.920460 -0.117527 2.563993 12 15 189 0.011491 1.000000
-4.732943 -1.601418 0.550937 62 241 245 0.003276 1.000000
3.014138 -1.355927 -2.367609 1 97 253 0.026319 1.000000
0.229483 0.984261 1.882577 109 158 175 0.000110 1.000000
-1.102870 -0.153807 2.973354 222 51 42 0.000987 1.000000
0.841312 -2.258747 0.475213 9 230 249 0.007712 1.000000
0.841267 1.175302 -1.074632 169 176 169 0.000750 1.000000
0.162782 0.288917 -1.234295 44 111 251 0.001141 1.000000
1.098278 0.201882 -1.132183 48 29 108 0.000201 1.000000
-2.095204 -0.584048 -0.611133 117 123 123 0.000321 1.000000
-0.519243 0.803981 -0.328824 119 185 230 0.000055 1.000000
2.632676 -0.907321 0.310511 28 215 242 0.001834 1.000000
-2.534754 -3.110409 -3.605556 253 253 253 0.116465 1.000000
0.143962 1.486598 -0.420219 40 152 242 0.060554 1.000000
3.738906 -1.037111 -0.927413 0 242 254 0.123584 1.000000
-0.126438 0.630600 0.630769 13 157 253 0.003311 1.000000
-3.097566 -0.911744 -1.957664 10 225 237 0.000462 1.000000
-1.831034 -0.125939 1.481718 36 15 34 0.003364 1.000000
0.540420 0.013526 0.063078 80 140 210 0.996676 1.000000
3.982789 -2.679660 -1.704560 11 157 250 0.170848 1.000000
5.122909 -1.192249 1.866978 0 233 253 0.020493 1.000000
-0.399404 0.126750 -0.676013 154 111 152 0.000152 1.000000
0.145997 0.910140 1.524302 48 81 209 0.000393 1.000000
-1.187518 0.152091 -1.475657 168 149 110 0.000100 1.000000
-0.462995 0.707055 -0.264218 204 234 241 0.000344 1.000000
-0.409018 1.566387 -0.513278 127 157 168 0.000985 1.000000
-2.655387 -1.452019 -1.829478 7 45 241 0.000773 1.000000
0.134686 1.552510 0.638907 46 150 195 0.000698 1.000000
0.489148 0.838823 0.031990 55 141 204 0.000080 1.000000
-1.130603 -3.646209 -6.078210 239 236 247 0.377130 1.000000
1.533579 0.858695 1.454700 127 137 187 0.000178 1.000000
0.315069 1.446358 0.104707 126 185 170 0.017490 1.000000
5.115029 -2.221975 -0.405909 0 10 254 0.158742 1.000000
-0.585451 -2.021279 -0.245443 162 167 145 0.007379 1.000000
0.176883 -0.514549 -2.355881 2 130 253 0.016068 1.000000
3.860993 -0.559467 1.655498 3 22 245 0.004781 1.000000
-1.319953 0.843292 -0.442657 77 161 146 0.000041 1.000000
4.348610 -2.883657 -1.261862 0 44 254 0.147363 1.000000
-3.692171 0.862689 -0.723029 12 124 240 0.000481 1.000000
0.525954 0.759395 -0.704894 76 169 240 0.000193 1.000000
-1.698602 0.171824 -2.650782 52 29 50 0.000373 1.000000
-1.736377 0.140855 -1.140865 143 175 180 0.000894 1.000000
-2.606082 0.802193 0.612245 37 88 197 0.000253 1.000000
1.388966 0.788279 -0.628242 49 176 209 0.000193 1.000000
-0.454976 -0.286099 -2.705519 10 125 243 0.008584 1.000000
1.804138 -0.392565 1.876443 31 121 247 0.016177 1.000000
0.105877 1.518833 0.498995 126 166 204 0.028538 1.000000
0.014743 0.118212 -0.134085 109 152 234 0.999643 5.338136
0.490057 -2.644687 -2.537461 15 134 249 0.015473 1.000000
1.860005 0.995341 -1.852511 16 32 156 0.001045 1.000000
0.512074 -0.499903 1.007137 239 194 86 0.001068 1.000000
0.717542 -0.795570 0.103073 17 248 254 0.086690 1.000000
-0.352733 0.852802 1.297853 68 103 220 0.000218 1.000000
3.508472 -2.485751 1.333023 92 249 253 0.166430 1.000000
0.044262 0.967723 -0.297440 112 201 226 0.000044 1.000000
1.808489 0.884670 -0.066026 133 167 154 0.000051 1.000000
-1.082497 0.931843 2.316797 8 22 235 0.001547 1.000000
0.242604 -0.185269 -0.312593 250 44 14 0.999587 7.096450
0.525499 0.935936 -0.172173 100 152 221 0.000057 1.000000
0.609133 0.823103 1.626404 137 191 195 0.000177 1.000000
1.653862 -1.798189 -1.329235 247 242 245 0.063449 1.000000
1.201585 -1.227759 -4.727647 241 5 5 0.018678 1.000000
-1.964657 1.009737 2.460922 222 98 76 0.000251 1.000000
-1.090337 -1.451643 -0.693096 11 225 252 0.082322 1.000000
-0.043229 0.000705 1.022166 87 199 244 0.003143 1.000000
0.150565 0.789552 0.325624 164 152 181 0.000016 1.000000
0.285142 0.764864 -0.744069 81 153 191 0.000203 1.000000
-0.716860 0.858054 -0.335347 96 137 151 0.000029 1.000000
1.246793 1.078659 0.471716 203 140 178 0.000138 1.000000
4.027329 -0.129940 -1.792807 7 233 249 0.003275 1.000000
1.477610 0.623084 -0.718577 41 25 64 0.000449 1.000000
1.895005 0.328855 -2.781835 12 40 203 0.014008 1.000000
-1.109451 -0.768531 1.133536 52 235 238 0.000912 1.000000
1.598401 -0.663070 -1.554222 6 74 250 0.049807 1.000000
0.990042 -0.339357 -2.283270 15 90 217 0.001314 1.000000
5.442035 -0.890810 1.486563 1 250 253 0.075221 1.000000
0.352380 0.696593 0.313340 234 242 249 0.000159 1.000000
0.453413 1.639936 0.387996 136 187 193 0.176357 1.000000
0.928890 -1.323641 3.319963 11 14 138 0.007182 1.000000
-2.685165 0.150989 -2.145461 58 95 137 0.000160 1.000000
-0.128549 -0.739692 4.911162 250 7 4 0.029802 1.000000
3.024555 -1.254270 -2.660378 249 3 3 0.008052 1.000000
-0.468556 -0.458647 0.534970 194 200 243 0.001428 1.000000
-1.040813 -0.102971 -1.817331 27 136 229 0.001780 1.000000
5.962150 -1.658137 -0.738600 0 244 254 0.059022 1.000000
3.170141 -0.968898 2.022461 5 12 243 0.036306 1.000000
-0.897475 1.027670 -1.020348 118 137 160 0.000043 1.000000
0.013159 1.069082 2.688241 11 6 149 0.001791 1.000000
0.361005 0.907467 2.041142 50 108 209 0.000593 1.000000
0.184382 -0.829287 -2.654769 253 4 2 0.074302 1.000000
-0.835130 0.176104 0.379416 161 114 153 0.001147 1.000000
0.599915 0.687335 -0.268601 175 129 125 0.000086 1.000000
-2.844092 0.250695 -0.077717 10 10 173 0.004266 1.000000
-1.866745 -1.578695 -2.197445 137 66 117 0.001317 1.000000
-1.288175 -0.350052 1.154229 138 13 23 0.001266 1.000000
-0.868835 -0.178256 -1.719089 168 232 239 0.001032 1.000000
-0.215584 0.751353 -0.239072 157 197 223 0.000359 1.000000
0.942998 -0.525648 -3.162811 18 87 220 0.001175 1.000000
-0.016378 -0.724911 0.136461 254 254 254 0.627231 4.821257
0.115524 0.962834 -0.037739 85 173 219 0.000139 1.000000
3.030210 -0.767320 2.544094 4 15 238 0.003896 1.000000
-0.154902 1.086281 0.009533 125 158 199 0.000068 1.000000
-0.245578 0.842706 2.213149 32 137 245 0.002805 1.000000
1.022796 -1.192636 -4.025974 254 1 0 0.107815 1.000000
1.036996 0.832645 2.200258 26 82 233 0.000971 1.000000
0.796641 0.709308 0.416372 54 104 194 0.000149 1.000000
-0.352909 -0.004945 -0.806222 199 234 251 0.002995 1.000000
2.107438 0.858206 0.701639 173 221 219 0.000177 1.000000
-0.264128 1.295535 -0.961377 125 178 188 0.000045 1.000000
-1.112295 0.701349 -1.380283 6 14 217 0.000637 1.000000
-0.447101 0.936633 1.727790 110 169 189 0.000845 1.000000
2.216693 -2.797777 -0.518467 6 93 249 0.004921 1.000000
-0.583526 0.781603 0.477566 178 189 194 0.000062 1.000000
-0.611932 0.133632 -1.136112 47 230 245 0.000455 1.000000
-1.885503 0.144407 -2.939193 9 4 19 0.002383 1.000000
0.504881 0.803181 1.620567 11 40 239 0.001819 1.000000
-1.519796 -1.173414 -2.269691 11 73 231 0.002189 1.000000
1.023090 -1.029092 -4.079773 254 1 0 0.065337 1.000000
-0.953169 -0.653136 1.734589 62 112 177 0.001039 1.000000
-0.847806 0.677466 -0.581242 126 131 144 0.000097 1.000000
3.790563 -1.066885 -1.241346 2 245 253 0.131199 1.000000
0.585365 1.532162 -0.140385 80 191 224 0.000832 1.000000
-0.047966 0.965813 -0.047277 133 191 225 0.000132 1.000000
-3.840514 0.242319 -0.294944 6 7 28 0.021925 1.000000
-4.422908 -3.457519 -2.260002 4 245 253 0.077418 1.000000
1.999833 -1.646765 3.747852 217 223 234 0.004504 1.000000
0.095727 0.931957 0.535151 83 141 194 0.000082 1.000000
-1.172827 -0.875647 -3.222296 6 151 249 0.002329 1.000000
3.987138 -1.490335 0.773508 6 11 249 0.092082 1.000000
-0.328282 0.707627 -0.552503 186 241 248 0.000218 1.000000
-2.965274 0.230068 -1.135979 25 121 213 0.001079 1.000000
-1.019704 0.033502 -0.987118 159 212 236 0.000543 1.000000
-3.540492 0.069603 -0.446872 8 13 219 0.068122 1.000000
0.377410 1.090257 3.479512 8 11 199 0.000558 1.000000
0.254912 0.732482 0.943661 181 224 238 0.000093 1.000000
1.544685 -2.206574 0.821443 47 9 27 0.007196 1.000000
-2.222150 0.814390 0.267632 8 92 238 0.000619 1.000000
4.298279 -0.387790 0.537349 5 234 248 0.013888 1.000000
-0.016964 -0.745974 -3.118842 38 169 203 0.000564 1.000000
4.258076 -2.855438 0.148946 137 243 253 0.193719 1.000000
-0.868264 -0.275131 1.802418 42 181 246 0.001588 1.000000
-0.617265 -1.144204 1.326712 241 253 253 0.056513 1.000000
-0.213016 0.740127 0.375180 118 143 221 0.000200 1.000000
0.743425 0.764713 -0.182993 94 133 199 0.000057 1.000000
-0.606907 0.741602 -0.882220 144 180 210 0.000035 1.000000
-1.024347 -0.988940 0.286273 138 193 211 0.000430 1.000000
0.019309 -0.820578 -0.549768 237 240 249 0.146058 1.000000
-1.847723 0.887885 0.954146 83 139 143 0.001075 1.000000
-0.001175 -1.315929 0.016866 251 120 30 0.000974 1.000000
0.691363 -0.277013 1.630683 200 27 41 0.002355 1.000000
2.402829 0.892113 1.623853 61 156 227 0.001011 1.000000
-0.092828 0.825249 1.362283 55 48 158 0.000541 1.000000
1.173053 -0.132771 3.874680 225 179 97 0.001469 1.000000
-0.453534 1.578024 0.585755 155 181 176 0.000173 1.000000
-0.515347 1.529736 -0.138381 139 136 192 0.032788 1.000000
-2.355319 0.089058 -1.466462 15 193 235 0.000501 1.000000
-2.979946 -0.352849 -0.551513 19 244 248 0.000949 1.000000
0.002937 0.663126 1.333613 158 75 137 0.000734 1.000000
-2.911083 -0.492256 -0.574404 10 213 247 0.001633 1.000000
1.317006 -0.445233 0.802502 54 86 235 0.096669 1.000000
6.624279 -3.089475 1.008290 0 0 254 0.186747 1.000000
-1.214493 -2.426562 1.489102 97 252 250 0.003043 1.000000
-1.282414 0.673738 0.528756 17 89 242 0.001077 1.000000
3.120952 -2.494318 -0.449291 148 236 251 0.113255 1.000000
-0.346086 0.040238 -1.098402 212 239 251 0.000956 1.000000
-0.049537 -0.502096 -3.821964 215 29 51 0.000338 1.000000
-0.668482 0.178129 -1.689409 60 40 177 0.000136 1.000000
-0.092727 0.775017 0.264024 178 173 218 0.000029 1.000000
4.645869 -1.528564 0.751236 2 249 252 0.009004 1.000000
0.634595 -0.341694 -1.147293 68 66 151 0.000409 1.000000
0.280800 0.011016 0.229505 164 214 238 0.255230 1.000000
0.208427 0.695562 -0.995688 132 194 219 0.000145 1.000000
4.180139 -2.366153 0.196873 2 11 251 0.018054 1.000000
4.338080 -2.886334 -0.986518 4 51 253 0.130108 1.000000
0.266482 0.839192 -0.170472 155 72 172 0.000036 1.000000
0.552490 0.021181 1.438572 94 210 242 0.009953 1.000000
-0.074473 0.690198 -1.085456 236 247 251 0.000194 1.000000
-1.597372 -1.752848 2.385950 9 87 233 0.004876 1.000000
-0.614944 0.129264 -1.149898 21 58 229 0.000368 1.000000
0.507495 -0.236352 2.870934 5 9 250 0.026570 1.000000
0.266431 0.762172 -0.279614 91 71 161 0.000049 1.000000
-0.381499 1.534390 -0.442481 140 230 242 0.007304 1.000000
-1.268748 -0.361947 1.165484 171 128 85 0.000371 1.000000
-1.013392 -3.166847 -1.911805 74 15 146 0.003778 1.000000
-0.052641 0.850327 -0.007606 85 170 182 0.000025 1.000000
-1.593478 -1.550213 -5.298343 251 0 1 0.049453 1.000000
-2.150303 0.827168 1.045186 121 112 197 0.000213 1.000000
1.726422 -2.544150 -1.237394 20 16 86 0.001781 1.000000
-0.523985 -1.343314 -2.427695 24 22 99 0.001510 1.000000
-1.468737 0.184667 -2.318553 24 48 100 0.000342 1.000000
-1.621002 0.347910 0.797557 73 82 223 0.015060 1.000000
2.868303 -3.718782 1.272853 6 14 244 0.002755 1.000000
4.156655 -3.000155 -1.531918 0 224 254 0.157235 1.000000
0.637963 0.791131 0.682182 117 205 235 0.000043 1.000000
-3.051636 -0.188393 1.809479 240 31 15 0.005291 1.000000
-2.949434 -0.690825 -0.575729 20 74 226 0.000352 1.000000
-0.180312 0.795781 0.541114 101 171 187 0.000127 1.000000
1.111190 -2.648132 0.906136 143 183 189 0.014741 1.000000
0.832735 0.721250 -0.542738 99 194 226 0.000052 1.000000
-2.263731 0.870178 0.456502 40 78 178 0.000107 1.000000
-2.159714 0.778104 0.391595 59 119 231 0.000404 1.000000
-0.596011 0.762765 -0.271367 108 170 217 0.000069 1.000000
-3.247372 -3.164689 -4.175977 253 248 250 0.073730 1.000000
0.886361 0.809175 -0.424007 242 130 42 0.000358 1.000000
0.224795 -1.831201 -0.338181 66 166 217 0.005678 1.000000
-1.871531 -1.574702 -2.551512 16 27 102 0.002995 1.000000
-1.202346 -0.885551 -3.271164 14 190 217 0.000240 1.000000
0.148413 0.669334 -0.718835 115 115 145 0.000083 1.000000
1.717338 -1.878146 -2.700943 2 7 252 0.039740 1.000000
-2.781608 -1.200029 -0.734592 7 229 250 0.002878 1.000000
0.925017 0.731044 -0.712419 93 46 175 0.000033 1.000000
6.414019 -1.656246 -1.677866 0 253 254 0.042853 1.000000
-0.974017 -2.919198 -1.546377 39 71 183 0.001292 1.000000
-0.357610 0.801938 -0.687229 209 216 209 0.000069 1.000000
-3.089693 -0.363940 -0.581870 94 196 213 0.000985 1.000000
-1.575608 0.925965 1.751810 101 114 179 0.000214 1.000000
0.974596 0.843586 -0.044296 219 240 248 0.000076 1.000000
0.450684 -0.672580 -3.193327 3 52 248 0.013080 1.000000
1.408096 0.561022 -0.289317 187 209 195 0.000070 1.000000
-0.977014 0.773883 1.386590 46 31 181 0.000374 1.000000
-1.636238 0.600328 -0.071996 125 209 248 0.000146 1.000000
0.697024 0.690477 -0.507839 148 117 138 0.000140 1.000000
4.786256 -1.958430 1.192500 7 18 252 0.122382 1.000000
-1.928708 -0.485094 -0.206222 188 24 17 0.003878 1.000000
-2.712159 -0.826567 -1.746297 12 54 233 0.000605 1.000000
0.083688 1.710536 -0.065890 146 131 155 0.209948 1.000000
-2.203822 0.766250 -0.336175 33 22 136 0.000163 1.000000
4.211500 -3.369353 2.440952 248 253 253 0.139635 1.000000
-0.689877 -0.481296 1.027784 19 39 219 0.001680 1.000000
-1.204024 -0.258185 0.771930 91 96 219 0.000866 1.000000
-1.045213 -0.597650 -2.005719 45 215 227 0.002772 1.000000
0.416751 0.925174 -0.317384 132 151 168 0.000018 1.000000
0.978571 1.317992 1.321251 209 195 160 0.000858 1.000000
0.272621 0.921501 0.394099 189 215 228 0.000248 1.000000
0.369852 0.692890 0.838237 194 229 238 0.000104 1.000000
0.098290 -0.680258 -0.308532 227 254 254 0.283077 3.937428
0.400830 -0.049681 0.061161 100 159 224 0.991281 2.303009
0.305740 -0.399688 -0.431948 254 136 115 0.999879 5.588676
-0.294647 1.629455 0.643856 174 140 159 0.143928 1.000000
-2.842548 0.089267 -0.524561 40 178 223 0.000214 1.000000
3.255378 -0.929871 -2.887351 0 237 253 0.009733 1.000000
5.241859 -0.985619 0.586195 4 211 249 0.008449 1.000000
4.477034 -0.228949 0.631318 2 12 251 0.011025 1.000000
1.963704 -3.128186 -3.262357 205 7 193 0.032488 1.000000
2.405649 -2.591325 3.280787 41 251 253 0.117048 1.000000
0.016108 0.106206 0.060561 156 209 249 0.999866 5.358395
3.284536 -2.782482 0.932246 1 2 246 0.177721 1.000000
0.084145 -0.307527 0.263722 64 121 210 0.999823 4.733158
-0.611273 0.628275 -0.256520 152 180 208 0.000163 1.000000
4.685421 -1.167078 1.835876 3 241 251 0.003019 1.000000
-0.674605 0.676628 -0.278146 150 158 167 0.000270 1.000000
6.136541 -1.257812 -1.376770 0 252 254 0.059032 1.000000
0.048149 -0.069095 0.344143 52 108 207 0.999941 5.375686
0.192850 0.867602 -0.020883 208 228 239 0.000114 1.000000
0.813521 0.881149 -1.073393 148 106 131 0.000056 1.000000
-1.895558 -0.924921 0.061493 23 82 223 0.001457 1.000000
-2.008271 0.820066 1.811462 30 62 247 0.006591 1.000000
-2.278846 -0.718469 -1.095887 141 116 167 0.000491 1.000000
-0.722187 0.722536 -0.355873 142 173 206 0.000038 1.000000
-3.361469 -1.734342 -1.027421 61 247 249 0.006738 1.000000
-0.064104 -0.142869 -3.585936 17 107 225 0.002607 1.000000
0.520755 0.768974 0.063546 172 205 219 0.000066 1.000000
0.676354 1.304987 -0.939255 143 152 216 0.000083 1.000000
-1.127434 -0.700976 -1.214849 26 228 239 0.000394 1.000000
0.054423 0.040084 0.174320 126 181 232 0.981254 1.000000
-0.402336 0.735158 0.880134 171 189 226 0.000045 1.000000
-2.871881 -0.851198 -1.806202 12 210 245 0.000985 1.000000
0.231389 0.909369 2.611045 14 33 227 0.001311 1.000000
4.852663 -3.105716 -0.262369 241 250 253 0.221997 1.000000
-0.461498 0.781941 0.195503 231 241 249 0.000127 1.000000
-0.375886 -1.469965 -4.399952 204 2 2 0.023061 1.000000
3.169381 -1.518878 -2.908877 2 14 251 0.003693 1.000000
-0.656311 0.735529 0.636506 160 182 185 0.000027 1.000000
-1.371532 -0.362412 -1.269425 40 49 234 0.002390 1.000000
-2.741541 0.248576 -1.128174 6 32 232 0.000848 1.000000
0.519560 -0.595134 0.171923 0 166 254 0.258588 5.375535
4.736916 -2.943070 -0.060566 239 250 253 0.196934 1.000000
0.014667 0.858436 1.687930 22 38 219 0.000482 1.000000
3.900254 -1.004459 1.572837 34 70 238 0.010505 1.000000
-0.191795 0.731908 0.939671 25 44 223 0.000258 1.000000
3.791839 -2.923486 0.654511 70 233 253 0.078428 1.000000
-0.002418 0.121818 3.279153 208 82 90 0.000424 1.000000
-0.559354 -3.139555 -3.161809 250 6 4 0.007011 1.000000
0.220967 0.689162 -0.541244 30 159 235 0.000212 1.000000
1.243919 0.723972 -1.113761 164 222 248 0.001240 1.000000
-0.086950 0.942779 -1.336408 168 114 128 0.000258 1.000000
0.817411 0.699666 0.180542 173 211 234 0.000162 1.000000
0.126510 0.792606 1.831397 18 86 241 0.002746 1.000000
4.487091 -1.825906 -2.396555 3 14 243 0.002956 1.000000
1.495250 -1.267766 2.627291 233 249 250 0.001428 1.000000
5.386952 -3.770726 0.750070 249 253 253 0.120710 1.000000
-1.394346 -3.499711 -6.020133 245 249 251 0.233851 1.000000
0.333049 1.528268 -0.457406 80 116 159 0.004064 1.000000
-2.283738 0.251060 -0.972729 49 75 162 0.000542 1.000000
0.205183 -1.762329 -0.194587 121 145 134 0.079707 1.000000
-0.509424 0.879853 3.150367 224 6 12 0.001579 1.000000
-4.566479 0.174732 -0.171360 4 6 35 0.024920 1.000000
-0.617041 0.115417 -1.153881 54 110 206 0.000220 1.000000
0.147751 0.106413 0.103681 131 189 236 0.999838 3.557943
3.042512 -2.313931 -0.119535 93 142 242 0.109680 1.000000
-2.749555 -0.547414 -0.524863 23 119 220 0.000232 1.000000
2.018212 0.263179 -0.201007 230 202 187 0.000117 1.000000
0.193304 -0.074682 -1.094644 40 23 121 0.000118 1.000000
0.473984 -0.076725 0.666827 178 219 252 0.000633 1.000000
1.917564 -0.648732 -2.828504 4 104 247 0.004085 1.000000
0.162990 0.970417 2.039113 26 46 215 0.001027 1.000000
-2.328641 -0.707016 -1.196075 136 169 212 0.004606 1.000000
-0.024798 -0.774509 -3.307051 25 128 210 0.000652 1.000000
0.329524 0.755458 -0.998270 73 65 177 0.000035 1.000000
-0.013878 0.923271 0.709449 129 113 179 0.000060 1.000000
-1.433053 -3.066113 -1.246999 206 209 215 0.074348 1.000000
3.086871 -3.650275 1.768524 16 35 216 0.002708 1.000000
-0.463707 0.666362 -0.487794 147 196 233 0.000130 1.000000
-1.862219 -1.721312 2.076063 41 250 250 0.028485 1.000000
0.619330 -0.291952 -1.651481 23 137 241 0.007756 1.000000
2.576648 -3.548264 -0.156138 8 53 240 0.080342 1.000000
0.006606 0.058926 -0.352145 0 114 249 0.999860 5.414704
1.486120 -2.873724 0.983834 12 18 228 0.003117 1.000000
-0.655152 -1.139361 -1.815777 30 12 161 0.000867 1.000000
0.427993 -0.065609 -0.078490 65 145 217 0.998775 2.447868
-0.240690 -0.193134 0.792857 220 223 253 0.004820 1.000000
0.467740 -0.622805 -2.541170 151 75 122 0.003300 1.000000
-1.601048 -0.710635 0.739410 242 249 253 0.002525 1.000000
-0.424612 0.299743 1.631154 11 81 246 0.027534 1.000000
-0.760842 -2.291709 -0.625606 146 168 193 0.010256 1.000000
2.813006 0.713475 1.849053 3 5 151 0.006389 1.000000
-2.068268 -0.414271 -0.861062 22 171 234 0.004566 1.000000
-0.421297 0.249656 -0.469033 253 79 39 0.050874 1.000000
0.296891 0.187466 0.180050 79 141 220 0.999645 5.040545
0.478234 1.275114 -0.702929 172 130 203 0.000045 1.000000
0.491668 -0.025948 -0.118557 2 128 254 0.999897 6.938191
-3.064100 -1.211710 1.682137 29 241 245 0.001021 1.000000
1.017002 1.104329 -0.834329 174 228 246 0.000579 1.000000
0.798884 0.977126 4.358267 7 13 222 0.002150 1.000000
0.315127 0.859372 -0.818008 66 137 217 0.000066 1.000000
0.771661 0.747034 -0.359328 133 115 146 0.000196 1.000000
0.259703 0.010628 0.105791 113 170 239 0.999811 3.977915
0.552605 1.542541 -0.458036 151 95 127 0.000095 1.000000
0.560635 -1.957157 0.125365 80 221 232 0.003593 1.000000
-0.608621 0.688688 -0.749884 194 223 233 0.000052 1.000000
0.160721 -1.286810 -3.507373 200 32 34 0.004072 1.000000
-1.740259 -1.186754 -2.395949 17 150 236 0.000635 1.000000
0.908175 -1.216159 -3.246529 254 6 3 0.085906 1.000000
1.343235 -2.178026 0.512515 22 53 243 0.004837 1.000000
1.236851 -2.543809 0.493602 48 150 219 0.006638 1.000000
0.277113 0.957610 0.068095 131 191 224 0.000074 1.000000
-0.014067 1.149660 -0.098967 168 140 195 0.000026 1.000000
3.105232 -2.201360 0.471574 102 234 253 0.251987 1.000000
0.046650 -0.508671 1.415212 98 141 244 0.000588 1.000000
-0.721302 -2.088745 -0.142403 141 192 200 0.003834 1.000000
-0.163766 -0.094372 0.179405 67 108 189 0.999777 5.438421
-0.202955 0.775019 0.993292 151 176 189 0.000055 1.000000
-0.344892 0.701588 0.695414 58 127 200 0.000147 1.000000
-2.220168 -0.978267 -0.787380 9 220 244 0.002866 1.000000
2.639482 0.915696 2.104766 10 15 215 0.003381 1.000000
0.001871 0.752640 -0.032299 92 133 164 0.001299 1.000000
-0.250110 -0.441050 2.081215 244 242 251 0.005746 1.000000
-3.214912 -2.158257 1.352509 15 252 252 0.086918 1.000000
-0.360205 1.061879 2.076149 14 37 196 0.000584 1.000000
