ply
format ascii 1.0
element vertex 128
property float x
property float y
property float z
property uchar red
property uchar green
property uchar blue
property float opacity
property float scale
end_header
1.156067 -0.078449 1.434662 104 138 182 0.038996 1.000000
2.085405 -0.154395 0.238020 63 159 198 0.042927 1.000000
0.938397 -1.338295 0.106444 39 164 229 0.095833 1.000000
0.263269 0.571429 -0.640396 109 204 231 0.030845 1.000000
0.187400 -0.109426 0.173336 157 70 49 0.262036 1.000000
-1.334697 0.191331 0.422889 155 170 181 0.029393 1.000000
0.558866 0.109298 0.078807 50 119 217 0.992012 4.157822
0.374049 -0.176169 0.923191 75 94 182 0.010198 1.000000
1.609691 0.111495 1.604334 60 122 222 0.090762 1.000000
0.886919 -0.847849 0.744502 30 203 238 0.079327 1.000000
0.419310 -0.088976 0.002511 112 129 145 0.572615 1.000000
0.313079 0.773364 0.517782 62 169 222 0.010312 1.000000
0.760222 -0.412447 0.641965 84 122 198 0.070832 1.000000
-0.332023 -0.615634 -0.026386 204 254 254 0.714902 2.509610
0.104452 0.339983 -0.036587 113 157 251 0.986343 2.521951
-0.158770 -0.086284 -0.168726 97 135 196 0.716381 1.000000
0.017803 0.444819 0.913440 170 225 238 0.034634 1.000000
0.272740 0.192785 -0.129089 93 172 232 0.287571 1.000000
0.232542 0.679651 -0.656192 70 152 223 0.005627 1.000000
-1.024028 0.183895 0.785273 64 162 211 0.015223 1.000000
-0.419319 0.689000 -0.468241 154 183 174 0.009048 1.000000
1.033981 -0.459842 0.440648 41 151 235 0.047132 1.000000
-0.446537 0.577175 -0.269707 234 243 245 0.020975 1.000000
0.209608 -0.353107 0.066984 56 136 234 0.992110 9.493569
1.096189 0.374428 1.211490 77 181 209 0.016002 1.000000
-1.868174 -0.184596 -0.127564 68 118 167 0.015917 1.000000
-0.537380 0.699788 -0.181382 231 243 246 0.017872 1.000000
0.318155 -0.546122 0.432876 94 219 245 0.163190 1.000000
3.457201 -0.831569 -0.016045 26 206 211 0.091919 1.000000
-0.094334 -0.025832 -0.350473 20 128 239 0.996532 4.713216
0.185385 0.333781 0.815681 128 217 248 0.026480 1.000000
0.539200 0.042417 -0.077896 84 153 240 0.919908 1.000000
-1.385283 -0.553899 0.277632 172 152 149 0.018589 1.000000
0.014881 0.138045 -0.015010 211 242 251 0.969595 1.000000
0.341693 -0.058089 0.361287 52 127 219 0.998503 5.083205
0.029499 0.030125 -0.163935 200 242 250 0.143101 1.000000
0.506500 0.544252 0.568875 227 238 249 0.830622 1.000000
0.310290 -0.790070 0.935282 65 212 241 0.058776 1.000000
-0.424100 -0.025480 0.871374 114 92 177 0.013237 1.000000
-0.176916 -0.015012 0.145389 45 105 201 0.996528 4.109312
0.013652 0.118349 -0.045440 180 223 245 0.904817 1.000000
0.123656 -0.235389 0.260505 134 116 174 0.371517 1.000000
-0.105889 -0.049397 -0.175358 34 111 214 0.097858 1.000000
0.193366 -0.213263 -0.319470 246 42 14 0.996820 6.436171
-1.943309 0.078282 -0.000953 129 181 207 0.063389 1.000000
-0.762061 0.701870 2.327918 43 156 194 0.076113 1.000000
0.060478 -0.984662 -0.702207 188 234 240 0.091950 1.000000
0.414454 -0.561756 0.852783 104 99 202 0.014294 1.000000
-0.291353 0.252743 0.586392 51 129 228 0.025755 1.000000
-0.743168 0.014415 -0.859645 61 75 154 0.010659 1.000000
0.192046 0.599920 -0.267588 201 200 244 0.019065 1.000000
-0.104846 -0.038505 0.043748 186 237 246 0.904310 1.000000
0.465058 0.690482 -0.141174 83 199 227 0.045221 1.000000
0.616620 -0.550589 0.419847 19 211 248 0.242199 1.000000
-0.041771 -0.781075 0.378791 240 252 248 0.274738 1.000000
0.185745 0.014272 0.060826 178 225 243 0.883129 1.000000
-1.218642 0.405427 1.167938 47 73 198 0.051412 1.000000
1.114850 -0.398964 -0.629827 19 190 242 0.084471 1.000000
0.350298 -0.101945 0.049611 99 177 242 0.194034 1.000000
0.303316 -0.473642 -0.616182 253 62 25 0.269877 1.000000
-0.481661 -0.451931 -0.429845 125 183 250 0.075273 1.000000
-0.793514 -0.430351 -0.367284 57 121 216 0.058488 1.000000
0.654671 -0.448201 -0.750566 164 195 235 0.033263 1.000000
0.531067 0.149981 -0.643102 122 191 227 0.006557 1.000000
0.360204 0.767275 -0.691077 54 178 220 0.005943 1.000000
-0.393019 -0.030488 -0.792453 50 114 200 0.016070 1.000000
-0.408389 -0.661857 -0.740543 196 148 221 0.044563 1.000000
1.013417 -1.162394 -0.163614 53 177 229 0.108572 1.000000
0.491239 -1.098690 -0.719839 96 180 193 0.077243 1.000000
0.003215 0.917148 -0.018883 158 213 229 0.008395 1.000000
-0.480196 -0.604080 0.274889 113 65 147 0.038336 1.000000
0.153418 -0.058856 -0.245273 175 135 184 0.609492 1.000000
0.323021 0.792341 -0.310471 108 120 191 0.007088 1.000000
0.070804 0.062441 0.042449 140 219 241 0.739625 1.000000
1.526924 -0.368157 0.346712 70 217 236 0.105865 1.000000
0.217106 -0.942953 -0.302847 242 135 100 0.109739 1.000000
0.118619 -0.210278 0.387835 70 104 186 0.994712 4.312984
0.260600 0.302117 0.058309 69 138 233 0.993761 4.217488
-1.056525 -0.213604 0.708687 106 67 156 0.014922 1.000000
-0.125227 0.125893 0.109550 110 185 251 0.997148 4.243212
0.423031 0.609872 -0.712934 131 194 212 0.004063 1.000000
0.487418 0.242445 -0.028169 69 129 213 0.996759 3.461813
-1.286612 -0.487479 -0.872029 101 103 161 0.025716 1.000000
0.027009 0.201363 -0.098500 108 186 253 0.999239 5.479498
0.619235 0.192077 1.316049 31 113 223 0.070443 1.000000
0.846483 -0.884221 0.556761 33 197 233 0.076395 1.000000
-0.143690 -0.792377 0.248666 242 247 245 0.249552 1.000000
0.233822 0.062449 -0.111396 68 144 226 0.995629 3.844436
-1.158493 -1.305313 0.060317 87 99 144 0.047113 1.000000
-0.038499 0.903858 0.253143 142 161 190 0.002129 1.000000
-1.099359 -0.865778 -1.806859 27 137 211 0.042220 1.000000
0.294139 -0.611127 0.458486 36 213 253 0.338723 1.000000
-0.609940 -0.027595 0.530122 47 66 207 0.026604 1.000000
-0.164634 -0.944074 0.875171 37 206 233 0.068119 1.000000
0.026098 0.678043 -0.449171 226 237 243 0.006761 1.000000
1.614144 -1.136779 0.923987 32 226 225 0.137895 1.000000
0.163972 -0.356578 -0.443193 254 131 94 0.975493 4.564638
-0.708215 -0.039603 -0.918292 68 76 176 0.010852 1.000000
-0.570294 -0.348902 -0.685562 172 60 52 0.040685 1.000000
1.117379 -1.162930 -1.130593 97 39 86 0.049789 1.000000
1.522892 -1.414469 0.432622 55 160 221 0.110845 1.000000
-1.260938 -0.312430 1.194930 161 199 240 0.016721 1.000000
0.663955 -1.106782 -0.555525 51 193 230 0.105147 1.000000
0.711327 -1.109381 0.483178 7 221 252 0.087652 1.000000
0.343054 0.723217 -0.213678 118 202 236 0.010421 1.000000
0.541356 0.385266 -0.907166 176 211 236 0.885163 1.000000
-0.111073 -0.832020 0.357871 218 248 246 0.211648 1.000000
0.164734 0.791659 -0.178208 87 167 227 0.006091 1.000000
-0.824080 0.050473 -0.555720 81 198 241 0.022158 1.000000
0.137114 0.058581 -0.001028 119 189 238 0.926149 1.000000
-0.851005 -0.479890 -0.671651 95 87 158 0.018836 1.000000
0.289636 0.066648 -0.149481 83 133 224 0.904428 1.000000
0.163542 0.256790 -0.032082 101 173 246 0.970650 1.000000
0.237550 -0.860216 -0.136036 209 232 240 0.106758 1.000000
0.542272 -0.187097 -1.064792 26 147 223 0.020212 1.000000
1.400805 -1.534673 0.851752 87 144 213 0.150891 1.000000
-0.014353 0.067295 -0.053364 237 128 127 0.568778 1.000000
0.929842 -1.305719 -0.869194 95 198 211 0.090034 1.000000
0.786899 -0.778731 0.105045 63 217 245 0.214298 1.000000
-0.307363 -0.432260 0.746180 211 82 68 0.033668 1.000000
1.343977 1.127646 -0.116159 176 179 140 0.017660 1.000000
0.200787 -0.946404 -0.405666 246 72 27 0.103761 1.000000
1.967340 0.126195 0.954855 71 82 197 0.055459 1.000000
0.115240 1.620575 0.788876 145 126 173 0.109523 1.000000
0.401107 0.634770 0.553812 63 173 205 0.005383 1.000000
0.416813 -0.819866 -0.528501 249 141 83 0.538747 1.000000
0.066419 0.792802 0.108286 127 167 208 0.003761 1.000000
0.567191 -0.005446 -0.072324 14 129 249 0.998127 5.940410
