ply
format ascii 1.0
element vertex 96
property float x
property float y
property float z
property uchar red
property uchar green
property uchar blue
property float opacity
property float scale
end_header
1.398900 0.090326 0.986563 171 132 157 0.074218 1.000000
0.095018 -0.501915 0.184986 106 95 145 0.327073 1.000000
0.107297 -0.159892 0.397381 65 103 195 0.945547 3.765121
-0.164324 -0.124506 -0.273313 84 107 188 0.645944 1.040529
-0.080338 0.005374 0.144204 144 210 236 0.738066 1.000000
0.232782 0.254558 0.083431 160 198 217 0.536667 1.000000
-0.279682 -0.488640 0.627415 88 130 188 0.037016 1.000000
0.851244 0.364256 0.009360 51 98 174 0.222774 1.000000
0.819996 0.013984 -0.689346 146 112 169 0.070900 1.000000
0.345583 0.175337 0.064641 68 134 229 0.883749 2.733525
-0.372033 -0.065041 0.582529 134 102 169 0.049912 1.000000
0.346343 0.315128 0.114680 156 196 234 0.723161 1.506579
-0.297803 -0.445900 0.751929 71 161 206 0.069345 1.000000
0.609426 0.214760 0.108104 81 139 201 0.474598 1.000000
0.216855 0.120106 -0.389390 42 127 230 0.518429 1.262155
0.172377 -0.347572 -0.133943 51 95 215 0.294373 1.000000
-0.429545 -0.637761 -0.170078 104 197 224 0.342630 1.000000
-0.543555 -1.047747 -0.132145 86 180 174 0.039641 1.000000
0.485966 -0.074285 0.173405 95 162 222 0.557716 1.000000
-0.017873 0.036939 -0.158103 104 185 238 0.935659 1.142984
-0.241599 0.688822 -0.315248 179 142 145 0.040944 1.000000
0.172849 0.054701 -0.254750 54 138 219 0.264026 1.000000
0.423110 -0.633615 0.084206 45 134 218 0.217930 1.000000
-0.102573 -0.135255 0.198033 60 112 206 0.933077 3.568169
0.481921 -0.070233 0.029479 146 201 213 0.482741 1.000000
-0.742576 0.099728 0.523545 80 116 163 0.055312 1.000000
0.038615 0.079745 0.014481 119 204 224 0.454852 1.000000
-0.594925 -0.014695 0.618221 99 143 210 0.054832 1.000000
-0.065875 -0.045618 -0.085111 142 185 192 0.298316 1.000000
0.291071 -0.701317 0.266004 53 153 190 0.178138 1.000000
0.178422 -0.218785 0.287776 103 113 161 0.417096 1.000000
0.386174 -0.040353 -0.021606 169 175 195 0.263396 1.000000
-0.382758 -0.660249 -0.092495 167 166 179 0.175784 1.000000
0.730816 0.667476 -1.147877 135 189 154 0.013504 1.000000
0.231678 -0.166125 -0.306262 229 47 29 0.956596 5.352127
0.521482 -0.093144 0.053176 29 120 236 0.976724 5.242038
0.325596 0.084607 0.960844 112 139 166 0.016461 1.000000
0.185117 -0.440134 -0.416210 251 148 118 0.922046 3.821426
-0.012346 0.119779 -0.207763 66 144 250 0.988517 3.189687
-0.160812 -0.311245 0.168068 88 124 188 0.632257 1.000000
0.317492 -0.045083 0.139050 87 131 184 0.536260 1.000000
-0.568664 0.019411 0.574963 108 144 181 0.025598 1.000000
0.500081 0.193839 0.266408 73 157 225 0.557615 1.000000
0.282845 -0.130199 -0.253247 221 119 116 0.449988 1.000000
0.227798 0.062479 -0.081269 74 148 220 0.732057 1.000000
0.451691 -0.193914 -0.786277 120 169 183 0.270624 1.000000
0.059767 0.123784 0.162952 163 199 226 0.545116 1.000000
0.276486 0.227869 0.067245 62 124 219 0.938124 2.916680
0.235631 0.131049 0.244614 110 188 204 0.306856 1.000000
-0.051942 0.050963 0.650611 122 116 156 0.037272 1.000000
-0.004982 0.107822 0.059179 130 200 250 0.986227 3.699760
-0.058694 0.448901 0.541318 44 147 213 0.084438 1.000000
-0.625519 0.045174 -0.806287 131 189 197 0.048030 1.000000
0.574224 -0.598881 0.237387 23 192 251 0.252348 2.768405
0.027941 0.107258 0.348064 71 156 225 0.761750 1.000000
0.222587 0.193574 -0.101072 104 186 237 0.788248 1.000000
0.223700 -0.068766 0.172610 147 133 158 0.215041 1.000000
-0.075607 -0.651812 -0.082675 166 212 225 0.214155 1.000000
0.137583 -0.000697 0.102952 96 188 238 0.608000 1.000000
-0.106743 -0.008714 -0.266068 42 136 238 0.938764 3.282217
0.379753 -0.301623 -0.444896 247 149 128 0.745590 1.700006
-0.032101 -0.167499 -0.398971 56 124 211 0.492350 1.000000
0.216641 -0.143989 -0.486856 81 131 226 0.740150 1.254144
0.210083 -0.054445 -0.148092 179 211 193 0.226275 1.000000
0.182180 -0.082879 0.306185 140 94 124 0.316231 1.000000
-0.477382 -0.096090 0.714140 86 112 178 0.493638 1.000000
0.889073 0.131478 -1.078962 70 127 180 0.043906 1.000000
0.289901 0.163125 -0.273259 37 119 218 0.441119 1.000000
0.292524 -0.026364 0.022416 81 154 221 0.771804 1.000000
0.032884 -0.463940 -0.594123 244 117 77 0.427592 1.158144
-0.577601 -0.565907 0.015233 212 147 158 0.135601 1.000000
0.180989 0.055553 -0.193532 58 150 228 0.505668 1.000000
-0.088476 -0.064017 0.009034 20 132 231 0.485326 1.379665
0.455073 -0.078613 0.078595 72 151 208 0.271101 1.000000
-0.154057 -0.041480 -0.030807 150 195 199 0.276955 1.000000
0.533158 -0.604175 0.325649 137 120 167 0.131730 1.000000
0.430116 0.666754 -0.150845 156 180 176 0.012204 1.000000
0.447373 -0.161153 -0.391881 67 155 210 0.600794 1.000000
-0.619268 0.149045 -0.363931 78 115 173 0.073050 1.000000
-0.173939 -0.808838 0.453107 72 157 199 0.151589 1.000000
-1.213540 -0.686269 -0.910980 143 106 182 0.032878 1.000000
0.062560 -0.260818 -0.352193 247 45 12 0.483533 1.308485
0.591686 -0.056620 0.219536 136 150 174 0.329483 1.000000
0.016750 0.033657 -0.155095 82 157 207 0.370162 1.000000
0.250507 0.308043 0.011488 126 174 245 0.955824 2.295744
0.127338 -0.455237 0.017120 60 128 221 0.965894 5.282138
-0.305822 -0.731863 0.111747 176 236 241 0.438719 2.016882
0.318042 0.055442 0.283935 42 127 230 0.971662 4.553018
-0.208067 -0.252340 0.088963 128 145 222 0.468594 1.000000
0.239218 -0.092454 0.024529 158 126 162 0.458438 1.000000
0.130476 0.206135 -0.279328 33 120 233 0.669911 1.401059
0.045377 -0.666605 0.286986 252 253 253 0.747510 3.239787
0.500836 -0.039414 0.048774 57 126 221 0.751195 2.030575
0.092921 -0.364927 0.317759 55 105 205 0.871117 2.474207
0.247628 -0.671337 0.385850 128 179 227 0.714008 1.000000
0.437133 0.001145 -0.247282 33 139 239 0.942565 3.490342
